ply
format ascii 1.0
element vertex 715
property float x
property float y
property float z
property uchar red
property uchar green
property uchar blue
end_header
1817.7902484358845 843.2484668603306 0.920661241845804 49 54 50
1791.6241324293023 878.1168548204337 -0.7681041488395696 128 130 127
1791.960876353337 878.1276917262115 -0.7538970075605534 123 125 122
1819.9158207641906 843.2880131369557 0.9735753777264387 52 57 51
1819.1929962075792 843.2458816511413 0.9433689614743439 58 54 51
1792.2930063447122 878.1301826192533 -0.7575344404752242 102 102 100
1792.3415506022193 877.9936080201062 -0.7534031843663832 126 126 124
1821.418782963898 843.3407425353 0.9968137384081113 55 56 51
1820.6459321894893 843.2988227977721 0.9650868399465218 57 58 53
1792.989890226062 878.173832952882 -0.7473488895654334 127 129 124
1793.3371713896993 878.1686711650202 -0.7330008112495201 88 93 87
1793.5079564504206 878.0863190105099 -0.7247165835368428 68 69 64
1822.9453161294884 843.3467758261966 1.019337215411262 57 57 55
1822.1586664927058 843.3286978437616 0.9872945323614022 59 60 55
1793.5727007308717 877.9474033341907 -0.738710769184725 117 114 109
1793.769205608062 877.8737748128937 -0.7296589459454281 145 137 134
1794.135095781282 877.8806359114853 -0.7150235428237067 141 136 130
1824.5934689078779 843.4262272529184 1.0431918526645878 53 57 56
1823.7436764500867 843.4117255139976 1.0091785327604248 58 58 58
1794.5288587864145 877.8952744920202 -0.7189386818305368 139 134 128
1794.9322003512148 877.8889475842217 -0.7029129282372062 144 139 133
1826.2733147882489 843.4554299280572 1.0664389134622037 58 59 51
1825.440107400711 843.4534763754104 1.0335655070000234 54 58 57
1795.347042950498 877.9015753860567 -0.7069323549475105 141 138 133
1795.7806682582914 877.9172107390505 -0.690396351233467 127 128 122
1827.1921795845346 843.4769560373386 1.0576778859405704 55 57 44
1796.6561434409577 878.1267162482256 -0.6810203316456633 96 102 100
1797.048890431828 878.1081768500327 -0.665850408124943 121 125 126
1797.5208505447717 878.1182921214606 -0.6700699484633517 116 118 113
1798.0158179896807 878.1545277626603 -0.6522712268387102 93 95 90
1798.50598449945 878.158825183347 -0.6568892818020486 109 111 106
1799.0564197832198 878.1816068028535 -0.637264100928551 85 90 86
1782.3741559826012 861.5200082419223 -0.9837524472384969 53 56 47
1799.6380753976814 878.2326660971617 -0.6405850651670879 112 117 113
1800.4703621228396 878.3534657817512 -0.6129208066645253 96 98 87
1800.8725568018478 878.2915464829055 -0.5976789367271469 111 112 107
1782.465858412854 861.6523462751409 -0.9919752205394399 42 44 31
1782.5149868312021 861.5585266263596 -0.988770123897726 49 51 38
1782.6727372916343 861.3264763322258 -0.9795563313179569 66 68 57
1782.6583773356685 861.2467110868869 -0.9788238932971092 59 60 55
1801.6288256273313 878.3866632485945 -0.597545857707924 100 95 91
1802.1184064026763 878.3442562848674 -0.579895378161994 113 108 104
1810.2362231215209 859.8005829672638 -0.008922604898993658 101 96 77
1810.2636742007603 859.5761826025345 -0.0044694384053369784 101 93 74
1782.6096359845244 861.6925386531652 -0.99710679265706 64 64 52
1802.8713393280418 878.4196107590544 -0.5811683083853365 101 97 86
1803.264696347241 878.3528195302151 -0.5667887029314459 72 72 70
1803.3645401105587 878.1475256198177 -0.5601957513257416 138 135 126
1803.97470004798 878.1493533009381 -0.5395381698253628 140 137 132
1783.0432615086318 861.6198940842323 -0.9908800432085669 45 47 34
1804.6792520325198 878.1757386817469 -0.5437254306755483 119 120 115
1805.4482119653621 878.2156004032466 -0.518893228682305 115 116 111
1804.4377363176352 876.9823661538741 -0.533041229940116 158 150 148
1783.081924873472 861.7831244686232 -1.0021087278458949 42 45 38
1783.0727557406237 861.6976543962638 -1.0010744320111788 44 47 40
1806.9596885536732 878.4647197905871 -0.5022445192319673 109 110 104
1815.5901053533494 862.723378274228 -0.012575133203478028 74 72 57
1813.06600529957 878.5666238954789 -0.3752983622278756 88 87 83
1813.5557864452087 878.4280720746906 -0.35807738465663963 152 145 139
1814.599151169936 878.4357552568138 -0.3617408699132716 91 88 81
1820.3529704977002 879.6617532181907 -0.2491614065184351 68 70 69
1821.5751706650808 879.7002956943484 -0.21418679274538843 63 65 64
1823.3477588987516 879.8241011474909 -0.16453412008522483 65 64 60
1780.413304127425 865.1573357483479 -1.1830074101768846 38 39 34
1780.3117252563336 865.1132799377659 -1.1852693426594247 53 56 49
1780.6462385614311 865.0112758954069 -1.1739202152669268 59 62 55
1781.7433272049145 864.8104481413072 -1.1388096083347496 40 43 36
1782.3906365414766 864.5976575750311 -1.1166049958805213 42 44 43
1782.4162755823613 864.5183741696469 -1.1146070489440936 51 53 42
1823.8901417791983 879.6159366586263 -0.1884877885138505 83 82 78
1826.4429830525182 879.8924878382587 -0.12057482233653327 47 52 48
1827.7115286672308 879.8308778950528 -0.08368082617572048 61 61 59
1782.9007152745094 865.477726542323 -1.1255879739021608 102 100 77
1781.1941826062207 865.262296513077 -1.1705034794759892 64 57 39
1831.2737084680193 879.9375281161275 -0.033432745529882624 61 60 56
1833.1449309605555 879.9534597331086 0.017806581104298447 82 82 80
1783.1486535721265 865.6955566744981 -1.1321565969637768 105 99 99
1783.5300879165388 865.5966008970278 -1.1200931545860413 92 86 74
1783.3771772753184 865.5317409827222 -1.1232736435334498 84 79 60
1788.0081388333913 869.0020261396335 -1.0790243724479183 86 77 70
1788.005440060503 868.9024351053683 -1.0775117296338959 77 78 70
1785.0650057375444 876.5112290342745 -1.2866036252844995 27 27 27
1787.0207510906578 877.9685143672258 -1.3013438397060382 25 32 25
1787.5235023306677 877.8671621141214 -1.3162110492522423 131 131 129
1787.964552092813 877.9921616920508 -1.3088965670544148 132 132 130
1811.13954662373 843.0450855759809 -0.2582450965998042 78 77 82
1788.2111856541928 878.0092185597503 -1.3184683855483634 128 130 125
1788.4632363785022 878.0110787291194 -1.313372851149802 101 103 100
1812.2264624674008 843.0682306493641 -0.26839724787151065 58 60 59
1811.6868244244931 843.0500566031733 -0.2790785894771053 51 51 51
1788.7032869022678 878.0155827989316 -1.3234667493267418 103 104 106
1788.865964874289 877.9671892627144 -1.3195092541248428 134 134 132
1813.93962015999 843.1230833319454 -0.26856085696872056 57 62 65
1813.3530817898543 843.0710255138102 -0.27918173058716755 57 62 65
1812.7853988847462 843.0839010344984 -0.2904798332075078 66 71 74
1789.2449423113435 878.0362220459676 -1.3285523848326195 135 136 130
1789.5205892008298 878.0506615245799 -1.3236199682107017 132 133 127
1815.129643601324 843.1451471031064 -0.2807354392282755 62 68 68
1814.5536680753391 843.136489659876 -0.2913889385021555 59 64 67
1789.795508520983 878.0598378975808 -1.3343916930737203 100 102 99
1789.8880315985755 877.9548705472693 -1.331035927028537 133 135 132
1790.3701004768454 878.0801306756687 -1.3244108640153613 134 134 132
1816.4078343101871 843.1939078455248 -0.29365969349846477 33 44 40
1815.780729664695 843.1581882599869 -0.3043334142327534 30 41 37
1790.6631338457792 878.0862906076851 -1.335721430304638 131 133 128
1790.9738817329458 878.0982599841852 -1.330588018243845 99 101 96
1817.7184545461275 843.2305535352201 -0.3078742279255844 46 51 54
1817.033015994419 843.2039906279774 -0.31919474859047536 44 49 52
1791.1238760212311 878.0132233945126 -1.3434745074203351 136 137 132
1791.5959879433594 878.1070301777897 -1.3372783966812454 141 140 135
1819.8211508557197 843.27654502411 -0.31138723876451935 79 86 92
1819.0918015137427 843.2767247586904 -0.3233112488319425 76 81 85
1818.3928349385744 843.2356322885256 -0.33406969042154433 65 71 71
1791.9201214087948 878.1108892305208 -1.3495147544762471 130 135 128
1792.261015699717 878.1189689717436 -1.3443461013903348 107 107 107
1792.326268178027 877.9916518447682 -1.3412646214501451 134 135 129
1821.3468164569008 843.3158134474999 -0.327120066999113 104 157 197
1820.5460667615137 843.3269338510014 -0.33974973498244543 110 155 188
1792.958594984473 878.1451050263171 -1.3522264116814788 129 134 128
1793.3033459579253 878.157614257452 -1.3473451519564932 99 105 101
1793.5046420227588 878.0912839367127 -1.3432976295413466 71 72 64
1799.4563413779483 859.517701835765 -0.9534807220758423 69 69 69
1823.6597809424334 843.3881003437614 -0.3342147037348977 105 145 171
1822.88654353781 843.3538892261317 -0.3450627374598858 106 147 179
1822.1058297402499 843.3339376440384 -0.35625292225963223 106 149 191
1793.5674258531867 877.9514425953843 -1.3588792652926014 110 107 102
1793.7324645020494 877.8622146439071 -1.3551234819007707 142 134 131
1794.1092291409996 877.8748324365544 -1.3500728085879996 140 137 130
1793.2193996325482 875.1724154754421 -1.318469535852155 58 58 60
1793.2252741359293 875.025486530171 -1.3159943920654957 58 63 66
1793.221268680425 874.8747924117763 -1.3135957548428374 59 64 67
1792.7735033810006 873.956354557696 -1.3048828855839774 48 48 46
1792.7802658499845 873.8128175773743 -1.302450602481086 52 52 50
1792.7767419443599 873.6476069708971 -1.2998088016038631 51 53 52
1792.8310134920498 873.5195721452785 -1.2969662259560208 67 63 62
1826.1804192496402 843.4739610729944 -0.34232804339838974 106 138 163
1825.3048577711193 843.4479089829454 -0.3541185455643594 103 138 170
1824.4775838844398 843.4138904991978 -0.3651056368247765 102 136 173
1794.49581448321 877.8665083348307 -1.364064089791956 137 134 127
1794.8946206689611 877.8782558034648 -1.3590102902200627 141 136 130
1795.3152904005103 877.8944423131758 -1.3537413427507614 145 138 128
1793.2249126215802 874.7080849954333 -1.3292518869187535 167 156 164
1793.2189237535256 874.556859894574 -1.3268634893035844 58 68 67
1793.2218285747574 874.4089727596215 -1.324412571356696 47 47 47
1793.1624307892848 874.2391301139367 -1.3224229186419618 103 103 105
1793.3259797768114 873.5313096046915 -1.308724007938817 82 80 81
1793.8457884169984 873.5447737837055 -1.3021066836583461 150 147 142
1827.0852710695938 843.5000661974948 -0.37474570208773406 87 119 134
1782.1734809718296 859.7790800557909 -1.2310502532797267 34 36 33
1782.1673594952663 859.6921727761903 -1.2297129157662305 32 33 37
1782.1625575297471 859.5956485245555 -1.2282013263560831 32 36 35
1795.7362996937668 877.9042453712735 -1.3688745219372773 133 134 128
1796.9153307932104 878.2526961585856 -1.3600017220379341 116 121 115
1782.2682203585448 860.0916891581356 -1.2441963747940668 58 63 67
1782.2040979600965 860.0341015651047 -1.2440475624404876 52 60 62
1782.193919985286 859.9488362985119 -1.242779989583213 53 61 63
1782.172528958627 859.8698291132057 -1.2417532165231535 67 72 75
1797.215671426018 878.1906677167569 -1.3769760205390555 155 156 151
1797.8424151730155 878.2681805830987 -1.3710014558770554 79 80 75
1798.3501088210598 878.2850860145717 -1.3654107577252952 73 74 69
1782.3975033352594 860.1170124013565 -1.2524087847943863 56 59 64
1798.4687259625853 878.1518854887045 -1.3845569716960178 59 60 55
1799.640081518424 878.2193449878325 -1.3730602693995257 59 61 56
1810.2127993403967 859.5387073993456 -0.9530587224953524 75 62 53
1810.2090558418747 859.3197899065808 -0.9495100753139663 73 53 46
1810.207360717902 859.0692840486115 -0.9454215314042754 77 64 56
1810.205661360291 858.8189058151321 -0.9413351253145048 96 89 70
1810.2190227180395 858.597086627939 -0.9375548765048299 40 40 40
1782.639527358291 860.1820646248276 -1.260267098670208 39 49 48
1782.4829694007792 860.166344996682 -1.26169380097875 40 43 48
1800.4540962264768 878.3565188238131 -1.3908377250660666 55 60 54
1810.380250171826 860.7400496688463 -1.0026926983987352 129 128 126
1810.3715762757865 860.4887945945623 -0.9986533846103167 132 130 143
1810.2177178623508 859.7884578147505 -0.9886861515982039 91 94 87
1783.2609610272775 860.1822505142068 -1.2737568605114624 51 61 63
1814.8149228612222 862.5204846583853 -1.0584062071928242 75 73 58
1814.7520373990185 862.2445934308315 -1.054387400583899 67 66 48
1782.7173098669305 861.5524971450536 -1.3109634001097372 35 38 29
1782.6624302092273 861.4876838503025 -1.3103547868662597 30 32 27
1782.708576906503 861.3935006254598 -1.3084172456233953 37 39 28
1782.7743288274762 861.2813710027549 -1.3060200650683762 32 31 37
1783.0091057918573 861.7159029016063 -1.321140056288767 40 43 34
1782.8317937444456 861.692343222593 -1.322093096931183 39 40 34
1782.7678537099905 861.6291988175728 -1.3215350774840888 41 46 39
1811.8560826099417 878.4671130307289 -1.412625195531569 173 172 170
1817.9576744720123 864.2202412434809 -1.1358731181621542 66 66 54
1824.1928220678496 863.0186071717907 -1.073806486091906 81 81 69
1824.0968852811834 862.6833908881787 -1.0689160329286271 89 86 71
1824.2421925126264 862.3748356736402 -1.0628331169244487 85 77 64
1813.047459602035 878.5415762993683 -1.4401295265730223 170 170 158
1813.5303779292572 878.4010307756633 -1.4349193748051863 150 142 139
1814.559789115893 878.4052525901701 -1.4288421558895352 116 119 112
1827.4236281607323 864.5022636606254 -1.1218931000032164 72 68 65
1781.1547800699968 864.6251760147258 -1.4002208410958605 167 155 143
1781.6927753136 864.4832000074213 -1.3946581205139594 139 132 124
1820.3429562577576 879.6774507764824 -1.455555906996314 112 114 113
1821.5775946103226 879.6783201687948 -1.4491828230986425 103 101 102
1833.8135262989576 863.2004218935506 -1.1126882704959384 47 47 37
1833.6023944103415 862.8088572772195 -1.107288734600887 75 75 65
1781.0362639635803 865.2134832529338 -1.4191105757889424 95 97 96
1780.6248983800622 865.1876434316704 -1.4208104031416418 32 32 32
1781.0358474497614 864.894261105467 -1.413820270524654 160 155 149
1785.1519134438554 859.7715546268031 -1.3075949095517867 35 44 39
1785.1567683614821 859.6553630972131 -1.305643425171265 33 42 37
1785.1592082669952 859.5516496540314 -1.3039113122152903 84 92 95
1785.1528872498807 859.4405824511241 -1.3021026048387896 64 72 75
1823.34182980454 879.7984658130002 -1.4846322818348652 92 96 99
1823.8413382446322 879.5802140885402 -1.478822363495481 116 114 115
1826.4169107053929 879.9069306534975 -1.4729778154164659 108 103 99
1827.655839963773 879.838957850255 -1.466427908228137 113 102 100
1828.2573773234124 874.705139445243 -1.378545085047154 137 141 144
1782.5930034161595 865.2786962901023 -1.4218254949735118 67 65 50
1785.1773064221431 860.2750458972814 -1.3274282351606428 41 50 59
1785.1807718666532 860.1705788710057 -1.325678322664846 48 66 78
1785.17409167706 860.0703375473505 -1.324042975099727 55 68 77
1785.1684215261764 859.9698100521069 -1.3223984558365798 40 38 41
1785.1529807356887 859.8622039202838 -1.3206791441046661 40 42 41
1830.1030072444137 880.0339883907263 -1.5069438422207901 118 119 114
1831.306865141092 879.9677712111243 -1.5015353309762887 74 70 67
1833.1435809641673 879.9766677934034 -1.4951118791017113 56 62 62
1777.8440129375847 867.7059631586994 -1.4948373776794113 62 64 63
1781.8828246754372 868.4428525729104 -1.4958853047947627 79 83 84
1783.1932370281197 868.5428491700507 -1.493908246069378 61 65 66
1786.5309423546962 869.0600708671111 -1.4932458403234599 62 74 72
1782.0737616195377 874.4218347513091 -1.6044713041765188 136 138 135
1793.9750701345763 870.0893089199517 -1.5085933518388268 147 143 142
1782.3817277913552 874.3092433511388 -1.6117400002844888 56 56 56
1782.411342307737 874.0197513943505 -1.6068670633675606 50 56 56
1782.447022027105 874.242999355486 -1.6203635885726304 44 54 55
1782.4600645341245 874.1514539126787 -1.6188262577920098 47 57 58
1782.574665737557 874.0146408877689 -1.616491996936308 54 59 62
1782.7007775279449 873.9832754081881 -1.6159182742394032 59 64 67
1782.879630656144 873.9926875186122 -1.6261530934831463 53 68 71
1783.0196290164658 873.965003053483 -1.6257465819796795 63 66 71
1783.2761546466566 874.0158899695332 -1.6371684838416607 71 75 78
1792.9319618824422 860.6977910379705 -1.532104605060117 49 47 50
1792.9406922519029 859.8313361225793 -1.5174707446445261 48 52 53
1792.9524839452886 859.687017652488 -1.515095284711745 48 52 53
1792.9989700185154 860.822790561153 -1.5524951218779761 76 72 71
1790.670309886651 878.0957975818495 -1.8957808845735609 166 169 162
1790.9545993073916 878.0925109717222 -1.8985633525045214 102 105 98
1790.943757219376 874.7392810989261 -1.8411749342299892 214 212 213
1780.2995741447905 860.5748257645254 -1.4929350638047434 56 59 64
1791.102646411634 878.0065897069031 -1.9153849723500884 134 134 132
1791.5728618942042 878.0996579651089 -1.9220474123222666 142 141 136
1791.8953599105594 878.1210237316823 -1.925890338410447 135 138 131
1791.4449746356645 875.9822640352018 -1.8844429088936983 186 185 181
1791.1183783801948 875.5414775004745 -1.873380112120309 190 189 187
1791.1379790568667 873.955175026537 -1.8464521261957105 209 208 204
1791.2511624412264 873.8613335954376 -1.8460670542605822 179 178 174
1791.3119852223342 873.7471945268628 -1.8447701322353323 203 199 196
1791.3520625834688 873.6249757944132 -1.8431112879230953 206 208 203
1791.3699630612318 873.4775000688476 -1.8407812071523573 160 159 155
1791.4308459864617 873.3615479348618 -1.8394539147228643 115 114 110
1780.4811060203497 860.563737714775 -1.5024345489009001 62 66 65
1792.2364097863715 878.1294296455652 -1.9474301924107174 101 106 99
1792.3189653235818 877.9936183482075 -1.9460590900804926 136 141 134
1792.9398424906924 878.1602224285134 -1.956103856594233 134 139 133
1792.9452080991423 873.5642494646232 -1.8774139419975646 188 184 181
1793.4124214969006 873.5668987750026 -1.8828698542654467 159 158 154
1793.2893069446484 878.1564953766342 -1.9786460023096488 104 109 102
1793.4975170328223 878.0939087024921 -1.9801491716200297 75 76 70
1793.5552596136888 877.9519806550708 -1.9784282215396596 100 95 91
1793.734099680023 877.8698151290932 -1.9792318433130673 137 132 128
1794.1059983743548 877.8801595014901 -1.9840127736702797 139 136 129
1794.494477922305 877.8733074091178 -1.988703827092987 146 143 136
1793.9033664920573 873.5514969571514 -1.9072183419453819 149 142 132
1794.42349677203 873.557760612829 -1.9137640691486522 177 172 169
1794.9428563912538 873.5570911591949 -1.9201812746462725 178 174 165
1794.900371439429 877.888200967323 -2.013820575077069 140 139 135
1795.3082966488444 877.898512749214 -2.0193725667233755 151 150 146
1795.4942853632 873.5587524489699 -1.947231598392202 184 183 179
1796.0557260425971 873.556546657222 -1.9545911325823968 73 75 70
1810.205243836646 858.804060759379 -1.9189985201703923 42 44 41
1782.0720107974241 859.8216028056337 -1.552519499839025 79 68 76
1814.7659140813917 862.5076750106315 -2.117034857157766 53 54 58
1782.124453254026 860.4143403836435 -1.572696211581905 51 31 33
1782.0715258153828 860.3507514173971 -1.5707741772826451 47 30 23
1782.0715014674868 860.2609887592599 -1.5692238375329552 61 35 34
1782.059972932383 860.1862028221999 -1.5677529978461278 45 56 52
1782.0456845634715 860.1041163982462 -1.5661131306670164 56 60 63
1782.054100646677 860.001238375213 -1.5644677321097118 56 68 68
1782.0700666945786 859.9120884057926 -1.5631769250809133 62 71 70
1817.9520942919999 864.2026457759379 -2.233769814378757 97 95 83
1782.4193497295148 860.5458517689315 -1.5889796696606635 47 38 33
1782.3146842014219 860.5034667748549 -1.5865336535781271 55 31 29
1782.196739777505 860.4692246695972 -1.5840111284217055 51 38 30
1825.91809458732 861.2659540483198 -2.357497817812176 49 50 45
1783.460240074339 863.4983525846103 -1.667405128047602 28 27 23
1782.7203455205133 860.5840843862826 -1.6042295377960063 54 55 47
1782.566710319525 860.569930724753 -1.6013473557813793 51 56 49
1812.3115887602096 875.1865781150819 -2.3987131954029333 52 52 54
1812.4278477545445 874.9398378313341 -2.3965213020440976 153 151 152
1812.87503489072 874.7925961469595 -2.4019994937304454 74 73 71
1813.9041606565952 874.71955350877 -2.419217542552817 109 108 103
1815.395143928246 874.720677687829 -2.4460179991981086 47 46 42
1771.0955029760378 866.1631592610262 -1.5018656527171472 43 42 37
1782.9041249286888 860.5963487289347 -1.617405625592743 53 54 46
1833.6143201304897 863.1854360073554 -2.6234983774944283 142 135 119
1771.1012746659462 866.1702674611005 -1.5026346104924257 86 86 76
1782.8250666946797 861.5937868783493 -1.6430603101380241 44 54 53
1782.7671752525332 861.5289758039991 -1.6408483163663712 54 51 46
1782.8471168579276 861.4117353740331 -1.640311151622063 57 57 49
1825.0106917836263 874.5571440759443 -2.703425030565316 35 34 29
1783.495786493394 860.5321390024593 -1.6474778323098622 53 49 46
1773.3507682798238 866.6253699240597 -1.5574374131632065 123 118 112
1773.6003786878534 866.642388736586 -1.562814777205483 128 123 117
1784.9851688591805 860.4376003144594 -1.7093547560578934 40 51 55
1784.930208400922 860.0430637681193 -1.7012522599832802 42 54 70
1788.2934871113966 860.15267835663 -1.8615639082173678 66 71 74
1788.9285862104741 860.1967611051679 -1.893923688293239 62 72 81
1783.4683635533488 873.8112427919928 -2.005289869643147 211 211 211
1783.6741843574373 873.8213306640906 -2.011463834033528 196 197 192
1791.402126760409 861.1805374411958 -2.0292088885539328 66 75 74
1790.8041580146396 860.9245567392552 -2.006772076903533 33 37 36
1793.1210318283636 860.9278280341339 -2.1120942740269486 94 96 95
1794.273006915833 860.9588504049796 -2.1678418229316923 50 51 45
1789.6947226029315 874.3848990188974 -2.3059328635227647 31 33 30
1789.7072707286525 874.2479845687907 -2.3039173366875816 34 35 37
1789.8047381481556 874.1456949313806 -2.3054693151919903 63 65 64
1789.8807421573463 873.9060295008096 -2.3038169303790283 104 103 101
1790.0005142402686 873.8252483586 -2.3065281798902086 67 68 63
1789.8847575122131 875.5679278808873 -2.349478283293098 79 81 78
1789.8155631486209 875.3911189299342 -2.3438513224808197 34 36 33
1789.8394407460644 875.2747063515266 -2.342612047421481 29 31 26
1789.7632990830843 875.0961410930149 -2.336706909451473 29 29 21
1789.6030085354676 874.7390366989599 -2.32461277681214 35 30 27
1789.6554627122748 874.6360827468021 -2.3246295120826796 27 28 23
1789.7400294959036 874.5305005284821 -2.325739398761563 28 29 24
1790.78254741679 873.845946690476 -2.3504845175993445 55 52 47
1790.784486674175 873.6969792229521 -2.347882574102022 49 45 46
1791.3412436120905 873.7478142128324 -2.3685636300171575 157 157 155
1791.7395374084242 873.7517205934514 -2.399977608345395 148 146 134
1792.1473709535858 873.7364005695804 -2.414509363332135 153 152 148
1792.7685707829419 873.8056797764763 -2.4383066059693013 126 126 114
1792.8406615297254 873.6840013932007 -2.4387391740544118 135 135 127
1792.8266447445515 873.5333228112819 -2.435524811709044 185 187 186
1793.351947306224 873.5368529162421 -2.4546598622872455 170 170 160
1801.8630363709963 862.0335135337764 -2.5571189134481966 74 73 68
1802.0114254624684 861.8141644881853 -2.5585678749951146 64 64 62
1802.0683593946135 861.606343550189 -2.5569034497516383 113 113 111
1803.220950502305 859.6552703198541 -2.5637175305137276 64 66 53
1803.3064424534712 859.4313024213392 -2.562800012109294 75 77 63
1803.3445958049517 859.2164091681653 -2.560326752940319 89 89 77
1793.8453045872322 873.5415089084692 -2.49152998175561 90 84 86
1794.3496433958946 873.543515880508 -2.5102788236366367 65 66 61
1795.1689879447376 873.6133267980996 -2.5419347212619376 44 46 41
1791.8836577086036 878.102514445535 -2.518191273701757 133 135 130
1792.2368379479005 878.1358629338264 -2.532177703197106 136 132 129
1792.3282538691387 878.0048659910351 -2.5332834476896835 136 132 129
1795.5173630570832 873.5539147838789 -2.5740005550033915 36 35 30
1796.0174346805495 873.533784397284 -2.592591260531978 83 80 73
1796.6396865974712 873.5413651726147 -2.6163117481124916 99 95 92
1780.0686039643144 860.769979542947 -1.7582622531514833 33 39 35
1792.9395166826134 878.1661323891683 -2.577629323914926 141 138 129
1793.303665703896 878.1705751653313 -2.591801454856254 142 139 130
1793.5060057350734 878.1049434957057 -2.5984480628162716 119 116 109
1793.5676945349796 877.964997170593 -2.5983114500963396 92 89 80
1793.714075704428 877.8665808530714 -2.6022012784892254 133 131 119
1794.0846917119457 877.8570934487188 -2.6163724467771656 109 106 97
1794.4676626357605 877.8673714260439 -2.631378191864674 53 56 49
1811.328409592321 863.2341080012591 -3.0199582883548164 131 135 138
1811.2225751832107 863.0153249789012 -3.0119169975637496 123 132 131
1811.1027173287148 862.7667351754924 -3.0027954679529927 114 129 126
1811.4790582141868 864.4613463657739 -3.080616854973857 117 116 111
1811.4887326381292 864.1998775453501 -3.0762765557300833 119 115 112
1811.826188192741 863.953107191066 -3.085147741480606 122 119 114
1811.749687928954 863.6947804617523 -3.0774606436153498 197 191 179
1811.4965326114918 863.4820239465715 -3.0636194384996394 189 186 181
1802.6321445475833 874.3520823015203 -2.935739275185753 114 110 107
1811.5418316438863 869.5444778945334 -3.2077829591390685 125 116 119
1811.5105275811775 869.3115121699212 -3.202307846799915 122 118 115
1806.3033371646195 875.0463130462912 -3.1250688550795642 114 111 104
1806.3795012284304 874.8320746382369 -3.1243177933287916 117 114 107
1806.384187844558 874.6002839395998 -3.1203117252683548 121 122 114
1806.8597257047463 874.4752620651109 -3.1375873132905205 130 127 120
1810.3202824528726 873.0364504624243 -3.253721775192557 112 109 104
1781.91691072214 860.0617265187583 -1.8695909813058642 30 37 30
1782.235779398775 860.5280567615044 -1.9009452008697594 43 47 46
1782.1361010410014 860.4856452818229 -1.8958392765873748 43 48 44
1781.989466682755 860.2898574592473 -1.8859011393047256 38 50 48
1781.9598843242327 860.2161625243253 -1.8832740535427062 31 40 39
1781.9455651105457 860.13491669758 -1.8811732802185714 30 36 36
1782.6554975060305 860.609389146197 -1.9302836267626742 39 40 35
1782.499083047416 860.5877191219466 -1.9229627005819807 44 47 40
1782.3588547061288 860.5608480729503 -1.9162637416467945 44 47 40
1782.8447316193633 860.609003261441 -1.9484148541888864 34 35 30
1783.4696521942749 860.5389029728552 -1.9855611050591087 41 42 46
1784.9964800698178 860.6202756614996 -2.0915155062224775 37 48 54
1784.8657369747357 860.3677062379855 -2.080569725004269 37 44 54
1784.8468037020218 860.2746790579013 -2.077948629856186 35 39 48
1784.8380096864444 860.1777173880566 -2.075744724036091 19 24 18
1785.6098071369493 860.8098456932826 -2.1365666373711667 47 52 58
1785.2329047410494 860.7365705342798 -2.1167273446217556 47 51 50
1785.0995566396537 860.6831964568041 -2.109203724724254 43 54 60
1785.9100977692688 860.8113274338763 -2.163535362608748 46 48 43
1787.6110189208355 860.5925774829545 -2.271436839196044 26 27 21
1787.5998830524247 860.4756877011997 -2.2687062939102844 32 34 31
1788.048745180321 860.9169698591243 -2.3138638229510686 45 44 40
1787.6844012679376 860.6760946143982 -2.2903729732320506 34 44 36
1787.921439037082 860.2589636746017 -2.2950488005759624 45 49 48
1780.9826849533877 873.6141946817357 -2.1965667588189 198 198 196
1781.0836748311383 873.5870940982263 -2.201502562969181 175 175 173
1781.2326822054201 873.5909538384276 -2.209597962645241 157 157 155
1781.3683654673002 873.5740551652189 -2.21659107434062 149 148 146
1781.5107518844964 873.5679949565999 -2.233182941185544 172 171 167
1781.6401217371683 873.5603990806578 -2.240111477345866 176 175 171
1781.80741114902 873.5562748771171 -2.249176611943379 174 173 169
1781.9722223965991 873.5665100089385 -2.258372885913345 178 174 171
1790.494219936764 861.2494095064575 -2.4954159872898076 70 70 62
1790.377301629612 861.1532052618857 -2.487240973153778 53 54 40
1782.1443654658465 873.5687282178786 -2.2773629813312484 174 173 169
1782.319487304796 873.5699021711436 -2.287094133986491 174 173 169
1782.4934042957457 873.5772236422157 -2.2968727686330177 173 172 168
1782.6844267941424 873.5818353896931 -2.3075494147644195 182 181 177
1782.8742431215271 873.5926345376308 -2.318274210955831 190 189 185
1791.503828620401 861.4128541384275 -2.570303891990411 87 88 72
1783.0861727896752 873.6025607048409 -2.3405024931202623 178 177 172
1783.304685616559 873.6233450120443 -2.353178708698904 171 170 165
1783.543945896555 873.6523272016921 -2.36717438864981 160 157 150
1794.8617608426648 861.8772583988356 -2.80385590505135 155 149 135
1794.5959979831773 861.7721427233829 -2.7867376988951964 154 148 134
1794.3039319530021 861.6754383346848 -2.768276027930224 125 117 106
1794.2851520387524 861.5475784761601 -2.764821176725487 111 102 87
1794.3183813193498 861.3907238904272 -2.763792270288808 107 101 85
1795.5264487559523 863.9004744248342 -2.8994421171208247 60 56 53
1795.6043862635538 863.7536862094198 -2.901209193247431 74 70 67
1795.6267698591082 863.5918743380582 -2.899482820144502 152 145 139
1795.6873359516258 863.4256305831451 -2.899881995306039 148 138 129
1795.7382151870193 863.2798390597515 -2.9001027609507037 149 139 129
1795.7787242879933 863.1147504132633 -2.8993635030009077 154 144 134
1795.835331754502 862.9471468407676 -2.8995083436148708 160 150 140
1795.8651498879444 862.8026061893886 -2.8985343911621317 158 148 138
1795.9217936843602 862.6339074392381 -2.898660886608903 161 153 142
1795.9653832781314 862.4664767476922 -2.898056064716605 161 153 142
1796.0073099280175 862.3190025833367 -2.8977276427019634 158 150 139
1795.7068007687683 862.2052135731627 -2.8782232899713893 161 153 142
1795.3769761785722 862.1001171022001 -2.857185760598046 155 149 137
1795.2070680521026 861.9718687396515 -2.844964785393035 156 150 138
1797.1819512399304 864.0867750513925 -3.0199461277054915 107 107 99
1795.4891692312997 864.0624720805075 -2.920239941463911 79 78 74
1798.1075945171303 860.4727199400421 -3.006650959403564 103 100 83
1798.1134096308153 860.2974213218256 -3.003714556851977 95 93 78
1798.125274523725 860.1207918678344 -3.0011079860918084 92 90 75
1797.2004678469116 866.640485133407 -3.090137389092866 122 119 114
1797.2471601275997 866.4700556444941 -3.0897214624677876 118 117 112
1797.2871544001282 866.320497177559 -3.0892982291844526 118 117 112
1797.3198646863104 866.14912666278 -3.0880337397245095 121 120 115
1797.347869806938 865.9988998241259 -3.0868854822037575 116 115 110
1797.380601393612 865.8268871986317 -3.08561023683734 118 117 113
1797.3905959689369 865.6764662237781 -3.0833879847135206 119 118 114
1797.3872795549423 865.5048765390491 -3.0799783386588366 119 118 113
1797.3347859127914 865.0354976773667 -3.068070811414281 119 116 109
1797.3284382160305 864.86476568448 -3.064497075326135 119 116 111
1797.313353230786 864.7160319405481 -3.0608159431945356 116 113 108
1797.3370842944214 864.5437790682294 -3.0590013021598605 117 114 109
1797.3189814152913 864.3954994036901 -3.0551493191393004 119 116 111
1797.2694698679738 864.2284835646103 -3.0490799465910436 113 113 103
1789.7554729008648 874.0051098437938 -2.8011877052220364 29 33 34
1789.9377353730522 873.7911843957172 -2.808153970118473 28 29 24
1790.1346610566868 873.7387102082209 -2.819030362428294 46 46 46
1790.3668057907432 873.6806335286128 -2.8319228481898193 93 95 94
1796.8463583473342 869.1722886655701 -3.1376402140591124 150 136 110
1796.7901252690258 868.99666986182 -3.1309608401054714 114 116 111
1796.959633215459 868.8654945879791 -3.138710401553932 121 119 107
1796.929341577127 868.6923845915563 -3.1336404362877506 120 116 113
1796.9711896851993 868.5472947435395 -3.1334405646175565 122 119 114
1797.0157529053704 868.380704785301 -3.1330011156190727 120 117 112
1797.0256797695458 868.2323257363424 -3.1308170589956594 116 115 110
1797.086246172959 868.0660973536238 -3.1313482107028987 118 117 112
1797.102179142532 867.9177058311357 -3.12952564913899 115 114 109
1797.124817588065 867.7482190670255 -3.1277114281451186 115 114 109
1797.1617439712875 867.6006266076437 -3.1271682155816354 114 113 108
1797.17240621841 867.4300791847751 -3.1246128196380596 113 112 107
1797.1653685059846 867.2801461537573 -3.1213779044740217 112 109 104
1797.1840299765367 867.1098509085979 -3.119309004726325 117 114 109
1797.1529870791146 866.9593878779226 -3.1146183956050084 115 112 107
1797.2036564243845 866.7897703175785 -3.1144899356704103 117 114 109
1789.6263225316618 874.220088766118 -2.812963415578803 28 30 27
1789.684282351128 874.1022709156492 -2.8142883093694575 23 27 28
1790.6490640248248 873.6538067787694 -2.8647432499461756 36 40 39
1791.9565167168603 873.6777311521106 -2.9449785666907538 25 35 27
1796.832087140734 870.9341331385662 -3.19099432380019 112 109 104
1796.8327294742255 870.7638993095323 -3.1878373493335346 109 106 101
1796.8495903240619 870.6177122570525 -3.186121578104804 110 109 104
1796.860188802611 870.4490879097727 -3.183602386816832 107 106 101
1796.8571405640212 870.2995853777642 -3.1806094325044185 109 109 99
1796.8717246387776 870.1315102215328 -3.178343769828905 110 109 104
1796.9371224654587 869.9705156205823 -3.1793119097172715 111 110 105
1796.9340806567068 869.8208192588796 -3.1763157085908533 109 108 103
1796.949679791598 869.6523188555882 -3.1741040049590863 121 113 100
1796.9376634786427 869.501595200889 -3.1705408551137277 191 170 151
1796.9442914962408 869.3319654050091 -3.1677604925070835 162 148 122
1794.4851094811652 873.8870457956566 -3.1226016569316934 103 102 98
1794.5883313758882 873.762636009143 -3.1266438649464003 104 103 99
1794.4973773431204 873.5775753287871 -3.1175415217632345 114 109 106
1794.9227552594436 873.5482894234019 -3.1432883298811296 119 111 108
1796.4568180279239 872.655322029387 -3.2213368924197896 107 106 101
1796.7662347815465 872.5611649509785 -3.2386951424324604 109 106 101
1796.6787804243559 872.3913023074065 -3.2300949018098284 110 107 102
1796.7300742399507 872.233047612072 -3.230290506980708 107 106 101
1796.79331112333 872.0768559088614 -3.2312632361811096 104 103 98
1796.813837251063 871.9107023108091 -3.2294082295013267 107 106 101
1796.8346606574544 871.7657613871314 -3.227970433947746 105 104 99
1796.824377819353 871.5929532251388 -3.2240856591615246 106 106 98
1796.8260216436884 871.4227026001683 -3.2209862924570167 106 105 101
1796.853816514263 871.2788241698552 -3.219999458744496 107 106 102
1796.8465091236146 871.1068428405877 -3.2163141759017106 107 106 102
1796.6190496199795 873.8639545742592 -3.275179008453156 114 111 104
1796.6643067084624 873.7066396536761 -3.275051003980489 123 120 113
1796.6877614406058 873.5427276874813 -3.2734335576965603 133 130 123
1796.7174663157973 873.4016237401153 -3.272636917579721 123 120 113
1796.662554849122 873.2163109945232 -3.265709357368138 120 117 112
1796.6760927801784 873.0496005096367 -3.263418244569419 112 109 104
1796.685663673277 872.8817801891103 -3.260857825501279 109 108 103
1796.5370475068962 874.7104745353824 -3.307027779035205 101 100 98
1793.419844032134 877.5560377239725 -3.1816349327521616 107 104 95
1793.5298262130561 877.4391041532847 -3.186489396502065 31 31 31
1791.8598558193733 877.9356189433638 -3.1060318105665905 158 148 136
1792.2033343988658 877.961483885585 -3.1288504522385576 161 151 139
1792.540686476188 877.9608104625718 -3.1507690369918286 160 152 139
1792.8825323934502 877.9755428888462 -3.1732710518837948 150 141 126
1793.1375645257906 877.9217459812672 -3.188833574756738 134 130 118
1793.2375633196327 877.8040325470835 -3.1931088567936388 135 125 116
1793.3267768906874 877.6795201260375 -3.196554438333125 121 111 102
1780.223010872191 860.7544649992557 -2.0476776175522096 23 27 26
1780.0536563117269 860.760092532221 -2.0363696773795215 55 57 52
1780.3854329755447 860.7480575019443 -2.066302769360677 23 27 26
1782.3697146574884 860.6252727122856 -2.236804448725195 28 30 29
1782.2606393845388 860.5940199922171 -2.2284203209800824 28 26 27
1782.0429361225106 860.5180310247134 -2.211426204815273 23 28 24
1781.9879421329513 860.4558095022542 -2.206310711592347 28 28 28
1781.96651508207 860.3775103675332 -2.203284089888041 25 25 23
1781.9522038407772 860.2959349809537 -2.2007028092824883 28 30 27
1781.9287159937924 860.2194071748991 -2.197562938532125 37 39 36
1781.9103088267238 860.1406007221817 -2.194742199301189 18 17 12
1782.9393979367267 861.6198028107673 -2.3063448647126426 76 76 76
1782.872518024072 860.6786541345894 -2.2834984863174643 38 40 29
1782.6684411567703 860.6746788557691 -2.268691171295253 27 29 28
1782.5249335411213 860.655394015065 -2.257962915504831 21 23 22
1783.1314048650152 860.6617547945003 -2.311847982263427 42 41 36
1785.1086091178558 860.663041292147 -2.490856213380037 20 26 24
1785.0035622757823 860.6007980218477 -2.4817402587281143 39 39 39
1784.9086067857602 860.5361153653101 -2.473337958742532 20 30 22
1784.8683864539803 860.4509691550348 -2.468667265647686 26 26 26
1784.86328377754 860.3633767693634 -2.466596404702103 19 21 18
1784.9594102023723 860.2117004379568 -2.47092179575566 22 22 24
1784.8491209788601 860.1566066136425 -2.461548342228617 25 26 21
1784.8565673818139 860.0528393828943 -2.460111958502635 17 22 16
1786.6355338191643 861.7417460436883 -2.6395181393128713 90 91 75
1786.411986204771 861.6908544406866 -2.621509423464988 89 89 77
1786.347616215733 861.6094549654053 -2.61503716592677 80 83 66
1786.5379787203399 861.4536455293746 -2.6265334638572013 86 89 72
1786.2869312326695 861.2057311135009 -2.602631948373282 79 81 67
1787.4689766243484 862.0590191667379 -2.7225970766136296 159 150 133
1787.1343946865745 862.0357818828584 -2.696396670791165 152 145 129
1787.016743132791 861.9611777294372 -2.6859011979502476 134 130 118
1786.8267614575998 861.8942395435097 -2.669986663172607 68 66 54
1786.7635346329382 861.808546026042 -2.663466039062628 76 76 64
1786.5893880771935 861.3246068580305 -2.6407204758434166 86 88 74
1788.4292138425396 863.8654781660834 -2.845668077765947 53 52 48
1788.4450729486225 863.7495268175895 -2.8446599514813 71 66 63
1788.4121838145818 863.6546004575234 -2.8402673779036025 81 72 67
1788.390819916804 863.5441915153826 -2.836471769707261 152 143 134
1788.3684392046996 863.4342575517594 -2.8326062712693325 147 140 124
1788.3480603689627 863.3243308147761 -2.82889658696398 148 145 128
1788.3246514117081 863.2152164157933 -2.82496697039825 161 155 139
1788.2851211791938 863.1092475783895 -2.8198445000519143 159 150 135
1788.2717567429747 862.9991100293395 -2.8166762102437244 157 149 138
1788.2503268004418 862.8906920292426 -2.81291395203814 158 150 139
1788.2349312757517 862.7814278625335 -2.8096045990548246 158 150 139
1788.1978989435188 862.6906906808263 -2.8049708116556022 154 146 135
1788.1637991471607 862.5719056722485 -2.800022892124967 155 147 134
1788.131232722188 862.4672511354333 -2.7954673632238416 153 145 132
1788.096634362017 862.3634955058571 -2.7907711987115755 154 146 133
1788.054960002893 862.2618076246769 -2.785564744981987 158 150 137
1788.051599868147 862.1518593582146 -2.783178091220581 159 151 138
1787.7818654964121 862.105062956599 -2.7612977989051597 158 150 137
1787.698053499548 860.5576770026636 -2.724868471047792 85 87 63
1787.6130375751625 860.464914231187 -2.716464119355158 78 82 59
1787.5943461611853 860.24376509638 -2.7107356711931443 48 55 47
1787.5953456429215 860.1231036471614 -2.7084809485712094 38 42 28
1788.68888250833 863.9468390521191 -2.8819349904878075 80 79 74
1790.2660499637748 864.5988390703048 -3.0342354916775767 114 113 108
1790.2546524992629 864.4897564620335 -3.0312166171965993 112 111 106
1790.210633983472 864.3681878739399 -3.0253669683782807 110 109 104
1790.1947180337204 864.2444288606303 -3.021705035823277 111 110 105
1790.090875253412 864.1458084996185 -3.0115526445949783 113 112 107
1789.4489318063963 863.9725467085327 -2.957250652565066 107 106 101
1789.0641826538447 860.2407520540145 -2.854382771668364 85 88 67
1790.3725146421864 866.7640185288994 -3.100570218955623 114 113 108
1790.3727359953805 866.6366349928834 -3.098115469493935 115 114 109
1790.3704268964702 866.5251774292824 -3.095767010897335 115 114 109
1790.3846553140163 866.3980337672398 -3.0944396595769272 116 115 110
1790.3943560276186 866.2866685431669 -3.093055644929102 117 116 111
1790.399581306188 866.1593284008148 -3.0910028295078797 111 110 105
1790.426308670275 866.0477096552396 -3.0909786724985384 115 114 109
1790.4205222330468 865.9203668936433 -3.088043157452284 114 113 108
1790.4302314139254 865.8087464205904 -3.0866548671646177 113 112 107
1790.4224362411146 865.6816023059779 -3.0835621967623927 114 113 108
1790.4256598754453 865.5542470395889 -3.081348645136833 116 115 110
1790.4203360590864 865.4431361033002 -3.0787652685501206 116 115 110
1790.4245597481895 865.3158115308684 -3.0766324725065903 112 111 106
1790.3301766945863 865.0828968412732 -3.0645463251798883 156 155 150
1790.3223406671673 864.9569843029889 -3.061474284739894 181 178 173
1790.2994487279439 864.832272069021 -3.057218728951173 120 117 112
1790.282043285985 864.7232336236154 -3.053707171186085 111 110 105
1790.3255855372097 868.2118821652894 -3.140829451338082 121 118 113
1790.3338004705708 868.0849515179723 -3.139027412795344 119 116 111
1790.3504723993765 867.9746823867785 -3.1382338265329195 115 114 110
1790.373668019887 867.8488213579269 -3.137665300955785 115 114 110
1790.3888830570186 867.7221150478254 -3.1364342983581 115 114 110
1790.3955832256365 867.6106696671097 -3.134810611613813 116 115 111
1790.4187973947742 867.4842494834614 -3.134232719713151 111 110 106
1790.4065187787833 867.3715471513087 -3.131048223098465 113 112 108
1790.3997599575775 867.2433379004239 -3.1280091709100057 113 112 107
1790.3934673347858 867.1312527784944 -3.1253212514718665 112 111 106
1790.3777017802217 867.0029540515106 -3.1215513429197506 110 109 104
1790.3689276240095 866.8751420896 -3.1183568662048993 114 113 108
1790.2337953639142 869.4126649979238 -3.1726140490494763 123 114 97
1790.2185580864914 869.2986161657883 -3.1691487105672147 190 176 139
1790.2406968018042 869.174440768158 -3.1685417503836932 139 117 104
1790.2000723843578 869.0410682889294 -3.1626249355150016 196 171 151
1790.2097286832463 868.9310437613873 -3.1612729582537487 122 122 98
1790.1710716656787 868.7987193141558 -3.155537374874719 118 110 107
1790.2649934200983 868.6834347196033 -3.1609716811852966 119 116 109
1790.2666859474818 868.5720569113219 -3.158942331097246 118 114 111
1790.2878542855854 868.446955879376 -3.1582380277168323 120 119 114
1790.3085022830996 868.3375406949023 -3.157796475766002 117 116 111
1780.7745767262466 873.4878626578537 -2.4870869136177256 170 171 173
1790.0926875428186 870.5006883159779 -3.1980470798888994 110 109 104
1790.090912658083 870.3731239814886 -3.195414449682927 107 106 101
1790.1080274867772 870.2495073786896 -3.194418037525698 108 107 102
1790.1261423600204 870.1259222279342 -3.1935047885408805 109 108 103
1790.1387648765433 870.0170153662683 -3.192424231898367 109 108 103
1790.1728091786883 869.8960823255605 -3.1928775892150556 109 108 103
1790.1889534924596 869.7715440899004 -3.191783102591469 105 108 101
1790.2035816018104 869.6625342204848 -3.1908660931278847 106 106 98
1790.2157533618745 869.537037426853 -3.189425004539669 109 110 102
1780.9296803324844 873.491433110566 -2.5085282662314263 157 156 152
1781.0806211968336 873.4981904633382 -2.521240085456187 156 155 151
1781.2414419550284 873.5088979073155 -2.5348524183134136 155 154 150
1781.4006940739491 873.506535942748 -2.548078958100511 155 154 150
1781.5617059544466 873.5114819386555 -2.561594781749709 155 154 150
1781.7326125465231 873.5199313400532 -2.5760036366616506 157 156 152
1781.8996971220004 873.52288359031 -2.5899866710827006 156 155 151
1782.0815891283944 873.5321350766608 -2.6053267424370903 156 155 151
1782.2593438444478 873.5453934481092 -2.620400194077782 161 160 156
1782.443404237881 873.5496347386924 -2.635823209587835 84 85 77
1790.0074196701728 871.3539235349143 -3.223384427609645 104 103 98
1790.0106047567474 871.2277297041398 -3.221187137840016 104 103 98
1790.0147822991946 871.101796238649 -3.219077644033617 104 103 98
1790.0358423872574 870.9799635405293 -3.218455230161341 109 106 101
1790.0390302256967 870.8536867538363 -3.2162565508087644 108 105 100
1790.051629929284 870.745468945716 -3.215194721080846 108 105 100
1790.0657497588193 870.621604705509 -3.2139542347858363 109 106 101
1782.9117240876892 873.6176755833675 -2.6863339601181013 102 104 101
1783.205143494562 873.675086112383 -2.7121443466920088 37 37 35
1783.189579415759 873.5708802731533 -2.7087983838585687 159 155 154
1783.4724264724825 873.6150351050309 -2.7334601640102285 147 147 139
1789.7145232818223 872.2795947166394 -3.2325763858647485 106 105 100
1789.728555370409 872.1583769574041 -3.231388213373699 105 104 99
1789.7693538548615 872.0450948386033 -3.232607258472384 102 101 96
1789.8299960612858 871.9371856735324 -3.2356009635283005 100 99 94
1789.8976037013497 871.8305501878173 -3.2392056342355264 102 101 96
1789.9533365218258 871.7197439561484 -3.241729646344605 103 102 97
1789.9763541058187 871.5992612971912 -3.2413118836786587 102 101 96
1790.0083099801525 871.4809367515754 -3.241688367529929 104 103 98
1789.690532860759 872.9151789232765 -3.258513914943324 115 112 107
1789.6916848190203 872.789916967295 -3.2561605758521854 113 110 105
1789.6958058423984 872.6656872887453 -3.2540796219417234 111 110 105
1789.5900009663783 872.5053882929764 -3.2419560110478964 107 106 101
1789.7629148690608 873.6030986064754 -3.2937346107050613 110 107 102
1789.7364040190369 873.4667363836584 -3.2887897113548514 115 114 109
1789.7400670935824 873.3261329898785 -3.2863486541258324 136 135 130
1789.7422236000455 873.200766871731 -3.284077004849777 180 177 170
1789.713706134867 873.0645372753384 -3.2789626680808057 131 128 121
1789.7585328623475 874.2813499831273 -3.3222746891340282 104 103 98
1789.7720858321045 874.1444010345513 -3.3207603268060186 104 103 98
1789.767860413926 874.0001677067962 -3.3175646442855284 104 103 98
1789.7571839217646 873.8693308917532 -3.314073598009626 109 108 103
1789.7361463446157 873.718864769185 -3.3093008380487365 113 110 105
1789.7903479392742 874.8341624499542 -3.351539932121498 107 106 102
1789.7920632402224 874.6919169836685 -3.3488949199574343 114 113 108
1789.7922707450925 874.564945511434 -3.3464183342168887 112 111 106
1789.7702891782094 874.4127533461103 -3.3415084797200136 107 106 101
1789.8245096547148 875.4067872560603 -3.3814815517633194 111 111 101
1789.8035652536912 875.2535045086998 -3.3766200994582096 104 104 96
1789.7850471773997 875.1176169354262 -3.372314704486347 107 107 99
1789.7946554284185 874.97886883444 -3.370431676541621 105 104 100
1789.7930620440402 875.9654073078965 -3.405397700926777 100 99 95
1789.8174457752295 875.8339381054891 -3.4049759328030023 102 101 97
1789.8408538678323 875.7017005251199 -3.404452270986088 102 104 93
1789.832738132568 875.5540207399854 -3.4008212125086894 105 105 93
1788.3187148181325 876.0793931728474 -3.291065714951677 115 111 102
1788.598890431064 876.083659769157 -3.316287063828261 115 112 103
1788.8929858520905 876.0908218037044 -3.3428144077704385 110 107 98
1789.1921566218878 876.0958831468015 -3.369755668319962 105 105 97
1789.486051950591 876.1090770338068 -3.396384050976124 102 102 94
1789.733819153367 876.0943831748646 -3.4183237029607074 100 100 90
1779.9118223251676 860.8298351519009 -2.287926482532534 25 26 21
1780.3635472350643 860.8253177898276 -2.3386661010367424 11 13 8
1780.2195352707568 860.8205888650006 -2.324733025178517 37 40 33
1780.1703076250744 860.7653580653955 -2.3189012855736584 42 45 38
1784.3261454416813 863.7603355691074 -2.8110197518581224 62 60 61
1784.447929398344 863.6504906099331 -2.8208148220914238 59 56 47
1784.4287120883048 863.5658179818558 -2.8172272328663714 113 106 98
1783.5558541654204 861.9306861282904 -2.698531667682038 46 43 38
1783.3787415927018 861.8975629413535 -2.680425621964945 57 54 49
1783.3038184135703 861.8322002957693 -2.671738366757962 69 60 51
1783.2578959345697 861.7678545789538 -2.6659276117797033 87 78 69
1783.2710450401746 861.6732816415672 -2.665329456467152 82 80 68
1783.2598796238435 861.587331013996 -2.6625092778030086 80 78 66
1782.957821078923 861.6084671359492 -2.6331840430814095 80 73 63
1784.9250002231731 863.8486771412557 -2.8832621779823535 64 63 59
