ply
format ascii 1.0
element vertex 713
property float x
property float y
property float z
property uchar red
property uchar green
property uchar blue
end_header
1156.2423325334828 427.1097842243946 0.55980206078028 177 171 159
1156.9549892407165 426.7748800632311 0.5028566737282603 178 172 160
1169.252641701077 410.31304490212574 -0.9201394630593205 21 19 20
1169.048075178323 410.3788038579699 -0.9048935695824403 45 45 45
1148.100945207904 426.20618932288147 1.0395482966773992 189 185 174
1148.1398232845786 426.398992128736 1.0453040657658266 193 189 178
1148.1978720674017 426.6125170037469 1.0507642509474142 195 191 180
1148.2631040948907 426.8224092293157 1.0556332976141005 192 188 177
1148.410392872279 426.956676817913 1.0523111052409149 211 202 197
1148.479905844632 427.16372146200604 1.0567990819111206 197 189 178
1154.2427863153853 427.67041289755053 0.72674284461549 157 137 130
1154.3778376776224 427.79138891031715 0.7236066432140771 164 116 102
1168.8426447862494 410.44762367710086 -0.8821002690457562 14 16 15
1149.2629092010995 430.1340055083582 1.1617053307109833 199 191 180
1149.8665750182695 429.97952147908643 1.1178868069970826 184 176 165
1150.6681190317736 429.6790692857641 1.0556608341125842 141 132 123
1151.6677003753016 429.2272119658083 0.9747869454857312 114 105 98
1168.6548652997446 410.5123707892642 -0.8602368308366745 14 14 14
1168.3784220077912 410.6549972141241 -0.8291023273927282 46 48 43
1168.1241363916226 410.7296135239247 -0.8018322502851989 44 45 40
1167.8638204291346 410.80808787360326 -0.7735802221291764 45 46 41
1167.5964809990614 410.89060962208185 -0.7442561207519803 45 45 45
1156.311073006803 436.38869288854494 1.1112247178732513 94 64 53
1156.8650863636 436.3996152447157 1.0754177957600588 97 68 54
1157.922052659729 435.46622657547255 0.965326663400784 100 68 55
1158.2761120460175 435.33523013313703 0.9364023224239466 97 65 52
1158.6354502045117 435.1894565025736 0.9064852815742721 100 68 57
1167.3065448603456 410.97816017029487 -0.712765832850011 48 47 53
1167.016851877828 411.0786244309035 -0.6891485000991044 45 45 43
1166.6967885581978 411.1679786020895 -0.6548298553806848 35 37 36
1166.818778594228 411.611320242712 -0.6433519047623334 44 48 49
1166.3618217992168 411.2807045992186 -0.617928300076083 43 45 44
1166.6224736625456 412.08423305171794 -0.5997529198480969 58 39 33
1166.624026925148 412.1590499134579 -0.5965215046618034 95 81 80
1166.5794188323332 412.24129350244493 -0.5898312812423532 112 105 99
1166.024234119842 411.380268968547 -0.5808717470307865 41 47 45
1165.2414723451384 411.6224196059556 -0.4955840082303389 28 30 29
1164.8315967141186 411.9220564525884 -0.4532800371067076 41 42 37
1164.8972813017344 412.083246969959 -0.45055847262971604 85 93 96
1164.0821938006613 411.83911512877654 -0.3819160235214605 46 52 48
1172.2125031946669 409.12424943080134 -1.0702643010243391 22 26 25
1172.2348917517716 409.1715120544664 -1.0697093780958926 17 18 10
1172.2504270552897 409.2174380625286 -1.0687065637708504 22 21 26
1172.2553759076327 409.25757296049085 -1.0671871909113286 24 25 20
1172.2558463373646 409.2970669658555 -1.0653641919605055 24 26 21
1172.2131673708245 409.3376136920023 -1.060275730967202 25 27 22
1172.2307847677293 409.38048751459826 -1.0595716906383517 38 40 35
1172.1705598096767 408.98736343988196 -1.0691120202001387 16 22 22
1172.1898904149411 409.03791583870816 -1.068175214054102 16 25 24
1172.2038929546018 409.07960044989863 -1.0672569063843638 18 22 21
1172.1134396236223 409.41099314166786 -1.0447661754855502 38 38 38
1172.0478468511997 409.4468883933307 -1.038129612872439 37 38 32
1172.1589298373904 408.8579769973395 -1.069918946844548 15 22 15
1172.1272174047867 408.896548993746 -1.0656719678762212 20 21 16
1171.9017533658593 409.4771490316934 -1.0208971712241415 34 34 32
1171.7961504855887 409.5107426515931 -1.0063777829674005 30 36 34
1171.6778879752553 409.54454739635776 -0.9906890596414335 26 31 27
1171.5575979418081 409.5847753049745 -0.9794250574964743 14 15 17
1171.4408522754122 409.62276010051056 -0.9633544974692279 24 27 20
1171.3171352323886 409.66200596875376 -0.9464747609755992 16 16 14
1154.4386878270147 413.3544976121392 0.5675012928974266 61 67 67
1154.625108460133 414.5166166186332 0.6093365090737455 70 80 81
1154.6696715844419 414.6428659851766 0.611959614086435 76 81 84
1154.7197523876418 414.7873210533714 0.615032799472224 75 80 83
1154.7817596731063 414.9295271289351 0.6170537264646005 74 79 82
1154.8193769844 415.05711968090554 0.6202912778518102 78 83 86
1154.8684811829824 415.20180995038686 0.6234531125159888 79 83 84
1154.9294413416012 415.34405608334976 0.6255587639617699 79 83 86
1154.969682864005 415.49066051498846 0.6295143663516638 78 83 86
1155.0083768672323 415.6182948198817 0.6326688386928672 78 83 86
1155.1036261407187 415.7526076280739 0.6316777733963301 76 81 84
1155.1937919452457 415.8875417837267 0.6311187989314948 79 84 87
1155.2743793172278 416.0047839779824 0.6304557518785938 78 83 86
1155.337913966164 416.14534128211477 0.632275680409472 79 84 87
1155.4354258047274 416.27710212505167 0.6309815323952119 83 88 91
1155.4971712602353 416.3980205593477 0.6319868808040832 86 91 94
1155.5033425579188 416.55316401236126 0.6390513819892301 87 92 95
1155.5280723269664 416.70384689701814 0.6444317129352604 84 89 92
1155.556077384791 416.83421702563913 0.6485643162439312 86 91 94
1155.6329666058655 416.97060186315997 0.6491254629739569 87 92 95
1155.6706302990858 417.098322759764 0.6523655956883687 89 94 97
1155.6966065558938 417.24951724378013 0.6576722973593176 84 92 94
1155.74775311746 417.373420685537 0.6596607884352539 87 95 97
1155.8072685123614 417.51460656459574 0.661829034359714 86 91 94
1155.851522779056 417.6605644080262 0.6654359570644888 87 92 95
1155.8950225021586 417.786808798764 0.6681428808017398 88 93 96
1155.955439910859 417.9275530743477 0.670218326190614 89 94 97
1156.0083913137412 418.0505755608146 0.6720212614818213 89 94 97
1156.0649611629085 418.19242351163507 0.6744545797035688 88 93 96
1156.1158612519089 418.33620805756385 0.6774303604321552 89 94 97
1156.171558297132 418.4580153144037 0.6789570980567883 91 96 99
1156.2430608036655 418.59418238066957 0.6799334588710788 90 95 98
1156.3126829803527 418.7104583911523 0.6800901674818431 89 94 97
1156.331738506409 418.8660030556358 0.6861557124159756 91 96 99
1156.3556011085375 419.02016155873093 0.6917737842235592 92 97 100
1156.3749616948571 419.15598723857966 0.696855300128876 88 93 96
1169.314058435835 421.42164093012155 -0.21567775774950726 112 74 63
1169.5074841555631 421.33704292349415 -0.2350860992226036 109 70 55
1169.6922824918647 421.25794775295947 -0.25354457708376965 112 74 61
1169.8780829440318 421.1728127954598 -0.272376286361532 110 70 58
1170.0553574562853 421.0934613810293 -0.29025248631757683 106 66 54
1171.1832153411137 409.70238267876465 -0.9285175517015383 19 19 19
1156.3993034083867 419.3103637369547 0.7216026081536813 94 98 101
1156.516944614805 419.4067634155776 0.7169335097512219 81 84 89
1156.5364588731152 419.5635758315884 0.723052492764926 75 81 81
1156.6223873957883 419.6720989829663 0.7215076086871213 75 81 79
1156.7090984576091 419.8004127768256 0.7208690658485815 77 82 85
1156.7498120522707 419.9483229369775 0.7248605092493736 75 80 83
1156.8115496111225 420.0662827632895 0.7257080645686618 76 81 85
1156.875113571445 420.20398418757827 0.7273762576218379 78 83 87
1156.9522773025046 420.33525474499936 0.727644353586699 78 82 83
1156.9892606713217 420.46403027139786 0.7309968010002816 78 82 83
1157.049955061877 420.6026038637976 0.7329366868039593 80 84 85
1157.115010953708 420.7179957633061 0.7333937263826844 87 91 92
1157.1449178579055 420.87125296615216 0.7385093171957287 110 109 105
1157.2181339807182 421.0033501664589 0.7391329073858997 135 130 124
1168.25527386705 421.9017596679511 -0.09767811122644288 146 137 128
1168.471159634779 421.8029450809137 -0.11974346889990484 108 88 77
1168.9562530102212 421.5560487712897 -0.17054111354205337 127 99 88
1169.12024215825 421.5016324547668 -0.18629161810558936 107 75 64
1157.2887812550714 421.1360538900933 0.7589752667410974 147 138 133
1157.3320656527408 421.2617022632796 0.7616733962914812 152 143 138
1157.3889490817726 421.40148089469767 0.7639715970055201 149 144 138
1157.4493732214398 421.53930713125254 0.7658884686483607 149 144 138
1157.5070854103478 421.678441548845 0.7680881972346116 146 143 136
1157.5583353219893 421.79969403137534 0.769928275992876 146 143 136
1157.5734871048476 421.9620582906721 0.7766999531311176 150 145 139
1157.6223814220846 422.1061675145992 0.7798548913304535 157 152 146
1157.6827431767038 422.2438211238691 0.7817682910127293 158 153 147
1167.0498932375137 422.2992459200492 0.029919936529018587 137 167 195
1167.0755751588715 422.4114359857445 0.033373571096849686 130 134 135
1167.3051369963596 422.32403829393274 0.010578999875512363 149 145 134
1167.5739390751305 422.18953596247235 -0.017695277975013468 157 153 142
1167.8075537991167 422.0869156470238 -0.041565652297753664 144 140 128
1168.0321577242719 422.0034237680504 -0.06376857559640592 153 146 136
1157.694650564689 422.3872954305502 0.8068910427550489 155 150 144
1157.859988532626 422.63624742244497 0.805769808933894 150 146 135
1157.9280270191991 422.76870692340106 0.8067939360146823 147 142 136
1157.9872778381737 422.9062243467662 0.8087829273689617 152 147 141
1158.0577781638833 423.0366837150444 0.8095078857545082 159 150 141
1158.1313013503104 423.14319576370923 0.8088017537919188 162 153 144
1158.227004760773 423.27877132975976 0.8077307101884681 161 152 143
1158.2942037461737 423.3883456714764 0.8076903643770128 164 155 146
1165.3387550784737 423.19471289858393 0.22532153018916734 122 85 76
1165.6456442210633 423.06574277682574 0.19398516157031764 116 80 66
1165.973391992487 422.9093050423991 0.15959325426845616 111 83 69
1166.2395728137662 422.79106279133396 0.13209782489438715 119 81 70
1166.5256401575025 422.66322514059516 0.10251050701386766 127 110 103
1158.3648420818186 423.53866032263466 0.8282156082265277 163 154 145
1158.4588094909984 423.6518097632616 0.8261357227753707 163 154 145
1158.5337428240389 423.7769124126058 0.8262127097675702 164 155 146
1158.594904208005 423.9109048131833 0.8278622835353413 162 153 144
1158.6713311936344 424.0342657787565 0.8277300169767952 159 155 144
1158.7518720458118 424.1543233096802 0.8270957502143828 156 152 141
1158.8263345073585 424.2781229982996 0.8271465314520643 157 153 142
1158.8804081147186 424.4160018627547 0.829571167569972 157 153 142
1163.247499565817 424.12794699872734 0.45686194341156705 151 147 136
1163.6058426481118 423.95631533533685 0.41891365654866886 158 154 143
1163.9732216309199 423.80674974235876 0.3813220608009853 156 152 140
1164.4322055747284 423.5640529060723 0.33157815038590566 81 72 63
1164.6745762612643 423.4974346412126 0.3083731815563393 145 137 126
1164.9796857393874 423.36649276588616 0.27681843450188537 130 93 84
1158.9346897517642 424.55337644158675 0.8506299369896879 161 152 143
1159.0097316763058 424.6758435139461 0.8505436533559385 164 155 146
1159.0934798541573 424.8135898115117 0.8505009417466922 165 156 147
1159.1540519904709 424.9459522445017 0.8521081532558983 165 156 147
1159.2237388107571 425.0712252173117 0.852605764977276 166 157 148
1159.287995720513 425.22259595665645 0.8548590113073888 165 156 147
1160.2136664023449 425.21972972795135 0.7780556761087174 153 145 134
1160.629695481718 425.0755596818194 0.7363876203547608 134 126 113
1161.0133399607957 424.9504596162925 0.6983557899016006 123 105 95
1161.4634406116188 424.7625140706128 0.6516755169551576 139 107 96
1161.8348132755525 424.6328299276442 0.6144305923543463 144 106 93
1162.1653945898947 424.53126416986834 0.5819708920468194 149 105 94
1162.522542231213 424.4004032525726 0.5458451334571641 150 104 91
1162.8520741335367 424.2871215654016 0.5128860660193382 154 141 124
1170.221536648521 409.85955306330936 -0.8132137064428333 16 20 19
1159.3278972368155 425.3701184563614 0.877539718764959 161 152 143
1159.3841618223914 425.50524846793496 0.879636556492392 162 153 144
1159.6741564891934 425.47644098844546 0.8539526346420498 154 146 135
1170.016366017188 409.69093123471004 -0.7982693006712733 14 15 17
1169.8252104563765 410.01378674156643 -0.7658188806812621 12 16 15
1169.8354776629683 410.07450731663823 -0.7636130642871053 20 21 25
1169.7963846700113 410.1278816885674 -0.7576166948221704 31 38 31
1169.7280131412547 409.73270398292874 -0.7653304245924915 8 10 5
1169.7446249972393 409.78748273856934 -0.7639577731004434 20 22 21
1169.7822692283066 409.9033979442416 -0.7612652115843581 12 14 9
1169.797840544394 409.9582346142798 -0.7598010900977304 16 16 14
1169.6057872030128 410.184601420839 -0.7319495553431727 16 20 19
1169.4248121730407 410.2444318599945 -0.7066309567669874 29 29 27
1169.2382322278036 410.30048363656783 -0.6807157989912622 25 25 23
1168.917310136034 410.3724703828329 -0.6419324010644896 29 29 27
1168.5258738591383 410.443149526509 -0.5964823209186061 27 25 26
1168.4191229167109 410.5090114532619 -0.583657373170706 20 26 26
1168.5623751604737 410.56471246497523 -0.5933829016087276 26 25 23
1168.4214870362332 410.63303464492867 -0.5774230252423421 33 34 28
1168.180228573485 410.71392646896317 -0.5440229000883648 39 41 40
1167.9229365399585 410.791544987694 -0.5089501468029823 12 14 13
1167.5058533869922 410.8880690964464 -0.4580124244908519 16 22 22
1166.7305160970986 411.1586191291904 -0.3553649813118227 35 37 36
1166.7620141443454 411.60113137776034 -0.334668692230933 39 40 34
1166.6623123928573 412.0623816733747 -0.30092184972622094 60 59 55
1166.6458355508935 412.1489443197124 -0.2947938165298418 73 68 65
1166.392380613889 411.26203803519985 -0.3093480350331357 32 34 33
1165.758757007825 411.3935440355637 -0.23366408501086466 33 37 40
1165.4504137436597 411.506497211457 -0.19879286495830661 32 37 33
1165.0657411132943 411.6308178524517 -0.1456384672259603 40 43 34
1164.8755582667754 411.9092040269141 -0.11267100408690567 32 33 35
1164.9431034644158 412.0696801153348 -0.11034239710435156 46 55 52
1164.3539350264793 411.17521274970574 -0.08138946299405281 25 31 29
1164.1134666300673 411.8165809442069 -0.02333075195649159 13 17 16
1160.6091941095012 412.5325662586131 0.40751477470551767 41 47 47
1160.8224489240217 413.17258776730944 0.42216665395997444 76 81 84
1160.8558631666306 413.27973111994726 0.42484494398492423 76 81 84
1160.8982986721135 413.3854099598945 0.4265517078523031 75 80 83
1160.9159534687738 413.4812451980895 0.43015398414803285 78 83 86
1160.9424646119107 413.5898415142695 0.4335942188943591 76 81 84
1160.9650529809194 413.6993285684915 0.43747106688877646 75 83 85
1160.9896938734103 413.8086224396393 0.44113468034066816 73 81 83
1161.029236121378 413.9151044327323 0.4431716213306429 80 85 88
1161.06778682624 414.0217790881993 0.44531711181341205 84 89 92
1161.0739301641695 414.1209973146022 0.4502435232736475 86 91 94
1161.0997608757234 414.2306471779208 0.4538096220291459 84 89 92
1161.1187812516598 414.34200669404885 0.4581428281604263 85 90 93
1161.1339732447577 414.45451814080656 0.46291790076708383 82 87 90
1161.1532130561989 414.551802927495 0.46644465648181943 87 92 95
1161.1822334898661 414.66146999254806 0.46969707747514144 84 89 92
1161.1996266456047 414.77419955950177 0.4742671878627047 87 92 95
1161.2258487555257 414.8849324713952 0.4778550693968724 88 93 96
1161.2472655893057 414.98236857902583 0.4811755193947287 89 94 97
1161.276495962222 415.0926165724205 0.48443962429012255 84 89 92
1161.3163753606889 415.20003150340574 0.48649532896262393 87 92 95
1161.3456130599461 415.2956178345919 0.4889411787755551 88 93 96
1161.382616831455 415.40388470469475 0.49132804177689926 88 93 96
1161.4081343694916 415.515604364473 0.4950404438224547 89 94 97
1161.443270060269 415.6245747939709 0.49765080629320857 89 94 97
1161.4592434967833 415.72456665796045 0.5016507063193594 88 93 96
1161.4973003827279 415.8328112413141 0.5039324465020312 89 94 97
1161.5410586145504 415.93921384460447 0.5055490924585662 89 94 97
1161.5704454954443 416.0352129801677 0.5080032447858904 90 95 98
1161.6274194381676 416.13707570159374 0.5080631384381589 92 97 100
1161.6654456740669 416.24523547241176 0.5103431728315095 90 95 98
1161.6929563370493 416.3419156507676 0.5130203717638218 92 97 100
1161.728186419117 416.4511472728532 0.5156359874618641 92 97 100
1161.7662449324976 416.5593963595273 0.51791781821742 90 95 98
1161.7966274250873 416.65521409101774 0.5202636474841602 89 94 97
1161.8393656336734 416.7617305485738 0.5219872579080154 90 95 98
1161.8653323440565 416.87469312480374 0.5257246580696318 90 95 98
1161.888508968488 416.9732301842898 0.5433303637419991 89 93 96
1161.9545982332436 417.1942799334022 0.549147366907498 76 84 86
1161.9860273594768 417.29005730625516 0.5513901047826428 76 84 86
1162.0232752656923 417.3989996353588 0.5537921495290374 76 82 82
1162.0825710235692 417.49847896793113 0.5534725210398237 75 81 81
1162.1304817906805 417.58700898270314 0.55367098489212 77 83 83
1162.1749800688374 417.69252327781845 0.5551603004080119 77 81 84
1162.2112437650599 417.8016785147027 0.5576721001313845 77 81 84
1162.2526556468695 417.89277968085406 0.558660586314754 78 83 87
1162.2970926249357 417.998124350898 0.560146490252005 80 85 89
1162.336974454906 418.1055460563995 0.5622015328776275 91 91 91
1162.3842544073068 418.2091184756703 0.5776664394857229 119 118 116
1162.439079530094 418.29329172064394 0.5769151340596836 129 130 124
1162.4833813730654 418.39826273230096 0.5783887330103112 133 134 128
1162.5393234258588 418.4972718414445 0.5783608981136468 142 135 129
1162.5933925542147 418.5969709218799 0.5785594825925593 142 135 125
1162.6348850105305 418.70297689047464 0.5803727106065513 135 130 124
1162.690228886953 418.7856492975465 0.579484948452426 136 131 125
1162.7423184938114 418.88574338178245 0.5799040197829946 136 131 125
1162.781040621936 418.9928923870064 0.5820590506095742 139 134 128
1162.8420511107918 419.0874847369926 0.5955304468901736 143 138 132
1162.885131370746 419.1920120003358 0.5970974006473362 148 143 137
1162.9308308496272 419.2949782274051 0.598311749690539 151 146 140
1162.9738612015428 419.3993673889203 0.5998759258792499 149 144 138
1163.0102901329149 419.4913620850096 0.6014049577406786 154 149 143
1163.054156850082 419.595129326205 0.6028495561030132 155 150 144
1163.0892785522208 419.70406049250016 0.605468708483228 157 153 142
1163.1376351740275 419.8047482031247 0.6205145704986494 156 152 141
1163.1710239884326 419.9147564699892 0.6233743147721265 155 151 140
1163.2286694317086 420.00967222604345 0.6229102137597009 152 148 137
1163.2819033572578 420.10706176727894 0.6230352055380168 147 143 132
1163.420786878777 420.27996341382243 0.6187462044904783 143 139 128
1163.4793646152734 420.3892037508889 0.6190016772347005 150 146 135
1163.5229877633749 420.49148082752225 0.634507082313992 156 147 138
1163.5783435041787 420.5859340173932 0.6342334475194915 155 146 137
1163.633612448394 420.68014703017195 0.6339549821711634 153 149 138
1163.6870991200146 420.7753005818698 0.6339127655261982 155 151 140
1163.7565734683806 420.8589070879595 0.6315736539263999 155 151 140
1163.8139474930085 420.96694231396486 0.6459053434996898 149 145 134
1163.8797699098886 421.0521896149167 0.6440075527525517 155 146 137
1163.930351118224 421.1481125448568 0.6442948339335508 162 153 144
1163.9897907167533 421.2538672081744 0.6442325336680497 164 155 146
1164.0535734742068 421.33934273378566 0.6425582618254879 160 151 142
1172.048324019484 409.1795420446803 -0.8755051472852954 29 26 19
1172.05490351974 409.22123685727706 -0.8737844603773331 78 56 42
1172.072142949688 409.2689405310934 -0.87282502181418 137 96 66
1172.057800929328 409.31146412816776 -0.8688824125870184 38 35 30
1164.1074059197401 421.4317119876061 0.6562481709273296 159 150 141
1164.1681979161363 421.5353377042491 0.6559065609681014 158 149 140
1164.2216854210592 421.6275591630865 0.6556663712634536 160 151 142
1164.2789761482372 421.7332406802294 0.6558071592075965 161 154 144
1164.3380551087864 421.8203819575632 0.6546929558237713 159 152 142
1172.0368619552753 409.1328781804396 -0.8723927916943959 34 28 12
1164.3904007291117 421.9291947860092 0.6693928217765885 163 154 145
1164.4402775106043 422.02316986535266 0.6696169779035139 163 154 145
1164.514358502649 422.1136566330718 0.6671055121969796 160 151 142
1164.5630379733711 422.2248707224595 0.6684538141340657 158 149 140
1171.9834346596563 408.9935794650646 -0.8702566603234234 22 24 13
1172.0006442532767 409.04120057800554 -0.8692988822631484 45 46 38
1164.6185185126776 422.3130025345083 0.6815504874129232 161 152 143
1164.6824519608015 422.41064322394317 0.6804940822850882 162 153 144
1164.7535093846411 422.50157311359516 0.6782959729959501 160 151 142
1164.8099233900923 422.6048302959369 0.6783592628185378 164 155 146
1171.9749801380497 408.8172499474506 -0.8750566861989619 13 19 9
1172.0147905252961 408.86575588558264 -0.8764469210549655 19 22 11
1171.9883136038177 408.90699196972133 -0.8712239165128951 23 21 26
1164.877633301799 422.69744885531253 0.6903198125831882 165 156 147
1164.9251992434524 422.7909027862356 0.690734853292952 171 162 153
1164.990892703527 422.8846071249925 0.6892397516613913 166 157 148
1165.0111671251514 423.019978967899 0.6950041677214924 163 154 145
1165.4442179939176 422.93528619923535 0.6440694298761447 151 148 133
1165.750041166414 422.7921308343726 0.6032246218238833 124 107 97
1166.0334741057793 422.68096846260784 0.5666283139726989 104 80 70
1166.2933778740419 422.5869038006323 0.5335302951562071 139 103 89
1166.9778042815985 422.21426405670366 0.43906394791589975 113 109 98
1167.0290887730016 422.30039213534843 0.43865570225419126 156 152 143
1167.2546511687608 422.21992978181754 0.409999589442803 168 164 152
1167.5073255949046 422.10586061972833 0.37649923077886904 171 167 156
1167.7347751323925 422.0130046772754 0.3469179069102346 165 161 150
1167.9601276517321 421.9172819461311 0.3173915824170559 170 166 155
1168.1636362768 421.84038437338654 0.2912856326433917 163 161 148
1168.3386012742333 421.8048758978153 0.27063108001794123 141 114 105
1168.972190141943 421.3972555651225 0.17951685929988948 170 151 137
1168.9750727758778 421.5167973120354 0.1862021263284428 142 99 83
1169.1513741615686 421.4614993940732 0.16424829865072255 128 89 72
1169.377058127412 421.34320642014313 0.1333667703492325 127 84 68
1169.553545032842 421.26493446165904 0.11004961749457776 113 73 63
1169.7521443594899 421.1685803926539 0.08332703444631417 115 75 63
1169.918890062013 421.11913586679634 0.06273016617484273 108 69 62
1170.1090972514621 421.0230470942527 0.036914179439063055 126 79 69
1171.1327683650375 409.54566487403014 -0.7376223735318894 8 10 9
1165.1212127603144 423.0712120722279 0.6999418731217226 160 151 142
1171.3338507683018 408.8475869055658 -0.7849460039660553 34 35 29
1170.2274805685315 409.8488281840291 -0.5983122358385937 19 17 18
1169.9595605909303 410.0615602275897 -0.5561227238997565 18 27 26
1169.933493663174 409.73072103534406 -0.5666937593089417 19 14 11
1169.9083371201257 409.8988971346336 -0.553798086672004 19 20 12
1169.9365897522628 409.95359054842515 -0.5536376460980735 22 22 24
1169.951868357383 410.0076109617439 -0.552081372868689 14 19 12
1169.8022948211474 410.1162673488198 -0.5289903942719748 19 28 23
1170.2372935538322 409.15898183936184 -0.6287209339096562 17 21 20
1170.1838024925228 409.2047149985159 -0.6199969135625057 20 26 24
1169.8355874029364 409.61795683530795 -0.5562283852770802 14 15 10
1169.8463865319266 409.67132419285355 -0.5542090707657266 13 18 21
1169.8833353002099 409.7853084918464 -0.5514435826709237 22 18 17
1169.787801291376 409.50296977899006 -0.5514356122002853 15 14 10
1169.8128268866344 409.5634120886963 -0.5505771001272437 10 18 5
1169.1641575120902 410.2343281894943 -0.4370863948504875 35 36 28
1169.1591441839075 410.2938445467146 -0.43291327505383936 47 48 40
1169.0682177215142 410.3534083728892 -0.4190966396857403 19 25 25
1168.7938993653036 410.4217330880166 -0.3767582177015252 21 16 13
1168.544364054943 410.49402936396575 -0.33654376943942577 29 31 28
1168.4801036813149 410.5598561820344 -0.3252066633080606 27 29 28
1169.192345983741 409.22206238173294 -0.48130692746464954 13 9 6
1169.1865413998216 409.28232118268335 -0.476937564001225 18 19 23
1169.1543581069088 409.3400367574021 -0.46970481848761425 5 14 9
1167.834133335768 410.71811154881664 -0.23384213133770415 45 47 46
1167.6911828115792 410.86511805847556 -0.20007465834614058 22 26 27
1167.4135418336102 410.95104310281374 -0.1627754808701276 17 21 22
1166.7171991900423 411.6713403145252 -0.028733619406152044 43 40 31
1166.727189272097 411.74301398235946 -0.02544655327981027 42 47 41
1166.7636746580254 411.811685081635 -0.02541879808883496 48 48 36
1166.64356606591 412.0487822413115 0.003218689301440536 36 40 39
1166.6744942855626 412.1284938732036 0.004575815950195183 59 63 62
1166.6569571153439 412.2061852254265 0.011428905342810713 73 75 74
1166.290515504663 411.56736106932226 0.023919081289942357 49 45 42
1166.3713768593022 411.9437490393425 0.03792852720102813 62 53 48
1164.4717364999055 412.6497328060656 0.33751866189503876 84 88 91
1164.4933212455696 412.735876762667 0.3403872872537306 79 83 86
1164.5159433844617 412.8219561784315 0.34312838588382055 79 84 87
1164.5445772310804 412.9070599152989 0.3450924892854208 75 80 83
1164.5563218434836 412.9953263693859 0.34926608983617413 82 88 88
1164.5750916877796 413.08248655503854 0.35253384002753285 77 83 83
1164.5810480936723 413.17234714403486 0.3574968744828835 84 89 92
1164.5930379064387 413.2612920984071 0.36168412134820094 84 89 92
1164.617025249176 413.3364735123995 0.3635748910120371 84 89 92
1164.6301235198775 413.42555057092903 0.3676385661646995 85 91 91
1164.6413374141391 413.5152835996282 0.37196789180202616 80 86 86
1164.6663451797708 413.6020940679301 0.3744712363958096 81 85 88
1164.6767664921836 413.6808285071866 0.37820066730698776 86 90 93
1164.7008430369133 413.7797378627212 0.38157849363616614 82 86 89
1164.7104184510717 413.8590667335242 0.3854461086853296 82 86 89
1164.7365601711363 413.9460798580041 0.3878273005416448 83 88 91
1164.7685345809632 414.03162193833447 0.3894215341521996 84 89 92
1164.794706679834 414.11871912479666 0.3918044167023549 81 88 94
1164.8199363192455 414.20614354579027 0.39432010939936135 81 88 94
1164.8461232185355 414.2815411326788 0.3959627695271215 81 89 92
1164.8685121888416 414.3699104801494 0.3988761529861271 85 93 96
1164.913930300051 414.45156103562636 0.39862491728753824 81 89 91
1164.9353895591469 414.5402928936388 0.40167182038098903 87 95 97
1164.9721495008916 414.62440145073356 0.40260607903707957 95 101 97
1164.9764564031143 414.7067625167849 0.40729205093188603 112 112 110
1165.0027863632806 414.7942965253334 0.40968371905181633 131 131 129
1165.039558782035 414.8784396078851 0.4106186721000198 145 145 143
1165.0563498381025 414.95718909874955 0.4135910338172486 157 154 149
1165.075186504522 415.04746932818296 0.41704776443919167 172 169 164
1165.0959617952492 415.1372436981293 0.4202418636726133 186 182 171
1165.125097588141 415.21199582935253 0.4214928561351785 191 187 176
1165.155454096304 415.31067180331536 0.42410861666629196 185 181 170
1165.174303393228 415.3892464287478 0.4268250041019941 188 184 173
1165.1924230000795 415.48047760259874 0.43042708921526107 187 183 172
1165.210603364543 415.57187690041417 0.43403255571620725 159 155 144
1165.2425798265404 415.6456841051604 0.43488585741677355 241 232 223
1165.2858510016292 415.72726409510335 0.4348856597775186 165 156 147
1165.3216714675477 415.81170814281705 0.43595289463074827 157 148 139
1164.1865335332373 411.2611296052665 0.29493055021002235 27 28 30
1164.1845717180136 411.3466888770687 0.3005891937567988 31 35 38
1164.1972146446774 411.4315700166743 0.30445582106049707 35 38 43
1164.213025597378 411.51641220637856 0.3079405841288021 34 40 36
1164.2090198213912 411.613926135189 0.3146018270331663 28 34 30
1165.3640636416796 415.89312691554017 0.44754005669699426 157 148 139
1165.4071849671957 415.9742928539599 0.44752115357172384 156 147 138
1165.4298369701696 416.05164926055244 0.4497121165042106 156 147 138
1165.4738039130502 416.13222003640783 0.4495542162392694 159 150 141
1165.5049183201772 416.2183175195071 0.45128584902281244 161 152 143
1165.5497056551635 416.2982233313307 0.45098754773849437 155 148 138
1165.581450430512 416.37138966113946 0.4518239683675076 151 147 136
1165.6134288992785 416.45694301930644 0.4534176305040687 156 152 141
1165.649024188292 416.5407642053646 0.45446834657728274 150 146 135
1165.6818884178451 416.62583348287234 0.45592524570531867 149 145 134
1164.0897360454192 410.9897013104294 0.3004344018932743 20 31 27
1165.7292971063357 416.7035267279345 0.46661145257717007 146 141 135
1165.7719957155034 416.7835235580977 0.4665586579122867 149 144 138
1165.8080775193828 416.85401599291106 0.4666981821641454 145 140 134
1165.8509626649256 416.94626917699674 0.467403194017985 152 148 139
1165.8842873993196 417.01793759152565 0.4679498458771312 148 144 133
1165.922340261335 417.09975428457767 0.468572779401327 152 148 137
1165.957693827844 417.1829068252222 0.4696060558702022 153 148 142
1165.9921396728307 417.26648263216407 0.47077567051986957 153 148 142
1166.030240886267 417.3477751739189 0.4827470601141679 150 141 132
1166.0716966775205 417.4272685713398 0.4828023858369388 149 140 131
1166.102546355052 417.5126335143081 0.48451928543130607 149 144 138
1166.14304669631 417.5924180610903 0.48470909043646837 152 147 141
1166.1773731573849 417.6756637026723 0.4858688714498032 153 149 138
1166.2195391982714 417.7541874504467 0.4857760715756183 151 147 136
1166.2583023731345 417.8343793586744 0.49755119811468296 150 146 135
1166.3038387076836 417.9104899202272 0.49688179782554465 152 148 137
1166.3397700528717 417.9923067560495 0.49775080513462333 153 148 142
1166.3782682708645 418.0724215914265 0.4981973154672059 150 145 139
1166.4236245024922 418.1480337855131 0.4975178917788743 153 148 142
1166.460443620657 418.22871915678655 0.509509897334135 150 145 139
1166.5052126400699 418.3173817835499 0.5097304797003812 152 148 137
1166.546098597097 418.3952994876543 0.5097349551647401 152 148 137
1166.5894919965615 418.4713508787223 0.5093112340237131 150 145 139
1166.6404793305253 418.54200147678205 0.5076069082734351 145 141 132
1166.6745214939249 418.6238108082823 0.5199531057535423 152 148 137
1166.7342282813872 418.70098117539897 0.517574638777407 151 147 136
1166.8170068758461 418.74807858261687 0.5103987400590078 178 174 163
1166.8186802728628 418.85249436067716 0.5169534261703472 219 215 204
1166.8697809307064 418.9345527085575 0.5271428762920289 156 152 141
1166.911838080467 419.0098427304699 0.5268117099126288 150 146 135
1166.960123476023 419.0935626482766 0.5262546392950338 147 143 132
1166.997051936192 419.1722698294032 0.5267831008989645 148 144 133
1167.0349107610784 419.2499724656869 0.5382806467917776 152 148 137
1167.0887950500667 419.32864263240816 0.5366801368152123 149 145 134
1167.1404485890641 419.39527049569995 0.53457219631681 145 141 130
1167.1957473135467 419.47198504630745 0.5326671239837097 147 143 132
1167.2518736843354 419.54741562622803 0.5416424928889272 147 143 132
1167.2867930172695 419.6264334838835 0.5424312568688034 146 142 131
1167.3368649996512 419.70629451741934 0.5413691923636288 149 145 134
1167.3894145402292 419.7835699614665 0.5508546486858095 152 143 134
1167.4417185905884 419.8608043045457 0.5493211540406386 153 144 135
1167.4926137850414 419.9253361374447 0.5471295456464762 157 148 139
1167.5414641061777 420.0047522814045 0.5461767789764516 156 147 138
1167.591158362748 420.0829359560753 0.5559945257885281 155 146 137
1167.6462375121764 420.156111891645 0.553821005903419 158 149 140
1167.7011848392858 420.2289230582561 0.5516401496146826 159 150 141
1167.7537399964822 420.30328921711424 0.5607628436798098 153 144 135
1167.8100203207537 420.3739210358815 0.5582449847686382 150 141 132
1167.8621973166019 420.4478713464846 0.5564729101272492 152 143 134
1167.9246564345453 420.51149869564193 0.5635231069862938 149 140 131
1167.9812918510215 420.5801799027808 0.5608062592474072 150 141 132
1168.0296613343 420.6700062932281 0.5605637914328889 152 143 134
1168.0947672978014 420.72922533515293 0.5668807094014252 149 140 131
1168.1447258285714 420.8029080753832 0.5653397445838471 150 141 132
1168.1961317702282 420.87472700144133 0.5634864841839236 150 141 132
1168.2620208349224 420.9449222365412 0.5703365876082287 149 140 131
1168.3190827866197 421.02358982960027 0.5681873021989381 151 142 133
1168.3725193999926 421.09161071216 0.5764404650493942 148 139 130
1168.4346631684818 421.16380078977465 0.5731663366763404 149 145 134
1168.4830968899537 421.2362006239046 0.5717034457302692 148 144 133
1168.5336189901977 421.3196365415019 0.5812980262647016 148 144 132
1168.5877048954076 421.3988745934913 0.5795365052539203 146 138 127
1168.6367006768805 421.46928694298884 0.5883978610490439 144 136 125
1168.801857001872 421.43626615320187 0.5642538593025541 146 138 127
1169.0966071927796 421.2512786269617 0.5125893731280817 98 95 86
1169.293250079431 421.15866980706323 0.48021700723796834 58 48 39
1169.479372943481 421.0868339656936 0.4506526038234828 71 54 46
1169.6502073967724 421.02844498475395 0.4240300126507608 94 72 59
1169.8199617750138 420.9670673001242 0.3973473112738395 116 88 77
1169.9789474042907 420.90175795681307 0.3812069824529929 128 96 85
1170.1402182321658 420.8550589692111 0.35651316611723805 132 119 103
1170.2965777386858 420.7977039968763 0.3317464279769531 147 142 136
1171.5026560322551 409.3314397015487 -0.607151733779755 22 24 21
1171.484084340767 409.37394433238893 -0.6017466324649343 20 23 12
1171.3994220044453 409.4125548644424 -0.58774597832595 37 37 35
1171.3019731313905 409.4509940040534 -0.5720424356874111 31 36 32
1171.4663408789881 409.18664542600254 -0.6071475815171063 20 16 17
1171.4868752384282 409.234664082148 -0.6066107866856976 22 26 29
1171.491665098041 409.2801940695918 -0.6041221440386355 15 17 14
1171.1348336359906 409.5310151653584 -0.5387344946898627 7 7 5
1171.79145395255 408.9563450883992 -0.6620898725024538 3 7 6
1171.7599709514454 408.99539487413983 -0.6551214619329815 15 20 16
1171.4531896589988 409.1352912710613 -0.6038501545541833 20 21 16
1170.558427663622 409.74606772327417 -0.44029755560975037 6 18 14
1171.6183473102653 408.8819648984812 -0.6388905893844051 8 12 11
1171.2524261775375 409.0635835788315 -0.5763898498698018 6 11 5
1170.4934549642655 409.69210442828927 -0.42928047964690896 25 23 24
1170.385615641747 409.79273364619365 -0.40759240138041 17 22 15
1170.0558933088475 409.94248558802514 -0.35223910956256343 14 22 11
1170.0708976472763 409.9957407822565 -0.3505896580977337 17 21 22
1169.892391850395 410.0533988675922 -0.32224717961464955 12 19 12
1171.8338656049511 408.73867486081434 -0.6735581771527424 31 33 28
1171.7450210931513 408.76569558541644 -0.6594936553639429 16 18 13
1171.2132706518312 408.96080350056053 -0.5729892654010991 10 9 14
1170.0238486229896 409.83584383840287 -0.3489393243557257 18 27 22
1170.0399018249266 409.88906715630293 -0.3474327086379225 7 13 13
1169.8178585526903 410.10497560660707 -0.3019455006645324 15 13 14
1169.9479054289136 409.6106639253521 -0.3478870275018824 19 21 16
1169.1860006086301 410.22217916110026 -0.20007340416964414 52 52 52
1169.1788107850907 410.28150154285913 -0.19493325919214333 56 67 63
1169.078287457351 410.3407488288251 -0.1769302450553969 24 30 26
1171.2390534842896 408.77336153449585 -0.5793366829299054 14 17 10
1169.923771609098 409.49950817504845 -0.34601925073438977 24 29 23
1169.935280715331 409.557760748301 -0.343524787909669 29 32 15
1166.9374075338173 412.51923921030465 0.2893835512789793 120 125 119
1166.9479814706153 412.5925069762492 0.29307388773734533 135 136 130
1166.9615911296262 412.6653732976515 0.29631280196820065 153 154 148
1166.981181096644 412.73718454402257 0.29864379966251353 166 166 158
1166.9958677605005 412.8100971833965 0.30173586273290254 183 180 173
1167.016504353558 412.881870685757 0.3039183185729093 180 177 168
1167.0391257029592 412.9532684787312 0.3057976525120196 179 176 167
1167.0568632784311 413.025821704554 0.30843913870181705 177 177 169
1167.0665473770514 413.0907593960425 0.3116663713546908 181 178 171
1167.0895175287199 413.17192403904494 0.31418548892964804 178 175 168
1167.112230014539 413.2435740179659 0.3160698949502776 185 180 174
1167.1320434827728 413.31600372034916 0.31841333132069827 185 178 172
1167.1547885173127 413.38774376567966 0.32029954879901323 181 174 168
1167.1743386236712 413.4506430423597 0.3220079566100107 177 172 166
1167.1990377645093 413.5219225657682 0.3235893463981081 178 173 167
1167.2295148688072 413.59158710129947 0.3242515584210517 177 173 162
1167.2590101732676 413.661468763107 0.3250659201181918 179 175 164
1167.2827405337564 413.7330014393556 0.32680018416355994 184 179 173
1167.3103026173478 413.80340141569786 0.327920535902932 185 180 174
1167.3292737027646 413.8764340288116 0.3304238810246347 183 179 168
1167.353630822319 413.93796546602715 0.3313658645639028 180 176 165
1167.3802374162888 414.0086553723267 0.33263983023910026 184 180 169
1167.3954714411325 414.0830826284879 0.33576235598956816 184 180 169
1167.4154791167334 414.1560497271148 0.33811660072417893 179 175 164
1167.4449429574304 414.22584432472644 0.33892921134555576 186 182 171
1167.4659218545346 414.298565025494 0.3411307176822227 190 186 175
1167.4771367414157 414.36480471081387 0.3442363539138631 199 195 184
1167.4944257735922 414.4390506509227 0.3470596674929387 202 192 183
1167.5164268851954 414.5116660578725 0.3491112733820352 209 199 190
1166.8325513886327 411.71512384835637 0.256575571157178 76 82 80
1166.8566147541092 411.7846440550296 0.25812237504468905 74 79 82
1166.8603956812613 411.85671707718274 0.2626921429142015 72 83 79
1166.8713529277823 411.92811097197267 0.26620818465930496 77 86 85
1166.8712609420545 412.0012025317716 0.2713927619465639 79 83 82
1166.874435762933 412.08333375687533 0.27675914920352995 80 84 83
1166.889648369803 412.1547673943316 0.27968166615869183 79 85 81
1166.8958754121138 412.2277414375246 0.2839723937275904 78 84 80
1166.9031859593642 412.30077983150665 0.2881158345213555 91 93 92
1166.906579110483 412.3747136723748 0.29287160907402954 103 103 103
1166.9250183631088 412.4462743134978 0.2953509373014882 122 121 116
1167.5105871695382 414.59470883842494 0.3653058407693277 157 152 146
1167.5931546921279 414.6442190980872 0.35723817150727366 237 233 222
1167.582649005352 414.72956844927455 0.3647494176142636 185 177 166
1167.601496726995 414.79345784410435 0.3666287150694105 159 151 140
1167.6355957995308 414.8614096777601 0.3666581648239242 148 144 133
1167.6659684284302 414.9307853479046 0.3673105755557695 151 147 136
1167.700917740073 414.9981560564143 0.36717975642173584 151 147 136
1167.7321536275679 415.0669866279766 0.36767262284810864 152 148 137
1167.7679401588298 415.13374018477634 0.36738081024245406 148 144 133
1167.7945472856277 415.2044316117182 0.36865400820240857 150 146 135
1167.823883062754 415.2738720262607 0.3694563021320698 153 149 138
1169.1703961337428 409.3294991047013 -0.23300529651842528 13 13 13
1166.6973818847955 411.20853747671464 0.24889154088870535 67 72 75
1166.7223641129324 411.2776664482553 0.2502818950442902 77 83 79
1166.7566478589831 411.3549311057308 0.2509396019502055 88 94 90
1166.792920887464 411.42303137024317 0.25066609366869774 61 65 66
1166.7778736743182 411.49581194264954 0.25795568429313565 65 69 70
1166.7947173993362 411.56589103185644 0.26056018227777966 67 71 74
1166.8218748016104 411.6439727817751 0.2622799782199887 79 83 86
1167.8546518041774 415.3320615364756 0.37873089106091107 158 154 143
1167.8866638148857 415.40010621855816 0.3790537821890685 151 147 136
1167.9150264525324 415.469787816157 0.3800071130358993 153 149 138
1167.949694121235 415.5363796455785 0.37985264573083866 150 146 135
1167.9771151217676 415.6063894122878 0.3809619561954207 152 148 137
1168.0081203979203 415.67458213066175 0.3814372040259586 151 147 136
1168.047164255242 415.7386144371535 0.38048436176374834 150 146 135
1166.6608735567172 410.7637330678193 0.23156546227825103 30 34 33
1166.6636347580368 410.83298243809804 0.2361119681054027 36 40 39
1166.6758512120725 410.91079317530944 0.23992959838321992 39 45 45
1166.6683729273607 410.98104611173045 0.24599806466596874 43 49 47
1166.6838878476742 411.0591828664756 0.24937171908124278 56 62 62
1166.6953087969189 411.1289248390312 0.2527267113436271 62 67 70
1168.0773176992527 415.8068391679882 0.3905127979958065 150 145 139
1168.11446947723 415.8715040489524 0.3898610591330538 153 148 142
1168.1364424957487 415.94404116392195 0.3919206699666138 153 149 140
1168.1744057063065 416.00801762967296 0.39110490774916284 149 145 134
1168.2052264818049 416.0757000889388 0.39156510321558713 145 141 130
1168.2457346557546 416.1379175348426 0.3902634298901724 150 146 135
1166.634435025121 410.5404284117789 0.22847189922372135 26 28 23
1166.6485217357697 410.6087451654016 0.2313556769291063 24 28 27
1166.65627857556 410.68594971521645 0.23577699347193692 27 31 30
1168.2713074952371 416.20813827107077 0.40104218559246396 152 148 137
1168.309068768618 416.2715565985787 0.4002040216504952 222 218 207
1168.3432632029012 416.3368398535569 0.4000072697029753 154 150 139
1168.3765398884334 416.4025172872751 0.39996942158791904 150 146 135
1168.4062887933324 416.47016772815493 0.40057515921653364 153 149 138
1168.4413488200782 416.5343722158356 0.4095330614808943 152 148 137
1168.4724739435437 416.6116983757637 0.41063295864294336 150 146 135
1168.5021476668928 416.67914101102537 0.41123052529237714 152 148 137
1168.5309364711015 416.74706862245455 0.4119896202336448 148 144 133
1168.5700405169348 416.8083359000519 0.4107934687344976 149 145 134
1168.60059875297 416.8747537410487 0.4205188346577755 148 144 133
1168.6341767738847 416.9500666779479 0.42111812846944163 148 144 133
1168.6688401147387 417.01371476862096 0.42071995082785363 147 142 136
1168.703455717469 417.07723076189336 0.4203191163816602 148 143 137
1168.7321862650629 417.1444601411774 0.4303356140233239 146 142 131
1168.777496969101 417.2111692377849 0.4286098820659785 146 142 131
1168.8085807322589 417.2766469603824 0.4288532048374498 147 142 136
1168.8372165507926 417.34361583081915 0.438836522534658 147 142 136
1168.8772716973158 417.41338418363136 0.438081368516573 150 146 135
1168.9158002525219 417.4730612256945 0.43681491510048587 147 143 132
1168.9540454752453 417.5436883317239 0.436385370972153 147 143 132
1168.994844259175 417.61204775812274 0.4446520995921577 148 144 133
1169.0223577150266 417.6793805337835 0.4455414255540566 148 144 133
1169.108736781011 417.70132521813196 0.434515198128687 149 145 134
1169.1434204517218 417.77330229751146 0.443859628711601 137 130 120
1169.1746569979593 417.8480040442007 0.4447390022422073 141 137 126
1169.2068829236375 417.91077639001793 0.44459961749077226 150 146 135
1169.250476034215 417.97514115670737 0.45204559079912565 148 144 133
1169.288962119802 418.043503043809 0.45138518474262557 148 144 133
1169.332274024308 418.10761829100005 0.44969998416511525 144 140 129
1169.367644781798 418.1668340191389 0.45793069057884717 144 140 129
1169.417109029087 418.23624111140555 0.4557073051035627 143 139 128
1169.4514205469193 418.2959853800958 0.45502056191158213 142 138 127
1169.485638466199 418.36668032513575 0.4642242505380274 145 141 130
1169.5373723655498 418.4218358713058 0.46058874611024847 144 140 129
1169.5794627870914 418.48498472141847 0.46801435322585294 145 141 130
1169.6317307879838 418.53868633829376 0.4641666988031725 149 140 131
1169.6774826809838 418.5978230057353 0.4617000279889112 147 138 129
1169.7270611203555 418.66409712693866 0.46815810180128103 146 142 131
1169.774950819594 418.72035084755805 0.4651358152873857 145 141 130
1169.815729328838 418.78280992724297 0.4725819736734842 146 142 133
1169.8648352250834 418.84829652086154 0.47004573826560714 143 139 128
1169.9162777888089 418.8997169160055 0.466102708301382 145 141 129
1169.9606524470737 418.9574655882779 0.47257631108310205 147 140 130
1170.0062563294 419.02499519408667 0.4707074217678169 145 138 128
1170.0558409544433 419.0766320556118 0.47587194502284946 141 137 126
1170.1042986679186 419.14032726538153 0.473261362109201 142 138 127
1170.1482133190311 419.1968094672589 0.4795985294705716 140 136 125
1170.2010263700483 419.2549594851585 0.47587955741657395 140 136 125
1170.2484297927795 419.3181660139466 0.4821291447351701 140 136 125
1170.28959535758 419.3763499758622 0.480188142230646 138 134 123
1170.3398035095358 419.4355888730704 0.48564785320615944 137 133 122
1170.3897598852561 419.4946356421584 0.4823926601155577 135 131 120
1170.4328881575577 419.5606832213412 0.4894127560404895 134 130 119
1170.4825757457663 419.61898747000737 0.4861210749564535 135 131 120
1170.5614157037396 419.64308101920415 0.48427218577885656 136 132 120
1170.6091383973808 419.71354636497847 0.4822004019346442 160 158 146
1170.6427923065655 419.78857832033975 0.49127038447152627 160 158 146
1170.694074120122 419.84249814730674 0.4873465879755907 161 159 147
1170.7445586219562 419.8966515303959 0.492105097596111 152 150 138
1170.7955657122463 419.9610517269888 0.4975290100842302 145 143 131
1170.8470958782352 420.01272886295914 0.4933436710870822 137 134 125
1172.04647641297 409.3333075388924 -0.5165703623627642 54 54 44
1168.980183583508 413.218176343741 0.27919380277225847 179 175 164
1169.0237945294903 413.33885332367885 0.28162091454320826 178 174 163
1172.047240205288 409.2471749506375 -0.5187758211837687 43 44 38
1168.6821820814357 412.0441306478825 0.24326188027783702 184 179 173
1168.6997403271644 412.1044467216045 0.24515871893068697 180 176 165
1168.7033847850782 412.1673172798347 0.24950000221569058 174 170 159
1168.71278953849 412.2373296537986 0.2534721248235712 174 169 163
1168.7274837823895 412.29851832112973 0.25589931369659724 177 172 166
1168.7293604926858 412.36236239731414 0.2606020436359835 178 174 163
1168.7471020962082 412.4231858451433 0.26250908683379537 178 174 163
1168.7628931367979 412.48447693792633 0.2647674023319899 183 178 172
1168.7747830515227 412.5467033206173 0.2677282624309487 192 187 181
1168.7935737136117 412.6074970964978 0.2694637754493232 187 182 176
1168.8133548465698 412.6680990808924 0.27102449766442693 177 172 166
1168.8243671259906 412.730829485289 0.2741664282866336 174 169 163
1168.8412658128445 412.79225302566056 0.27625647422922506 178 173 167
1168.8591571404822 412.8534907789736 0.2781718501323902 179 175 164
1168.87803459916 412.9145247319462 0.27991219370459297 179 175 164
1168.8988582809407 412.97507903111017 0.2813010234487219 179 175 164
1168.9196863025506 413.0356453391288 0.2826900947205424 179 175 164
1168.9376318780564 413.0970332031244 0.2846084897198504 179 175 164
1168.9555948128798 413.1584691025384 0.28652785082992405 179 175 164
1168.9915727604798 413.28148500762177 0.29036947138236857 177 173 162
1169.0353578277602 413.3938461557549 0.29211653105091173 180 176 165
1169.061806999087 413.4611692456064 0.29312869766400285 182 178 167
1169.0646840400677 413.5277813627776 0.2978870997362584 182 178 167
1169.080977672796 413.581665543939 0.2994836437591899 181 177 166
1169.0924730294807 413.64573268396396 0.3026524594325468 183 179 168
1169.1068386264997 413.7089444931084 0.3052912720817835 181 179 167
1169.1325029120187 413.76823060683694 0.3057999284715023 180 178 166
1169.1487848958132 413.83088020129736 0.30808556678978705 181 177 166
1169.1660272429103 413.8932546928431 0.310194738706441 164 160 149
1169.2252382376605 413.93979700752845 0.3042934833384481 243 239 228
1169.2507961973586 413.9987889043192 0.3047962222997278 246 242 231
1169.2429354727935 414.070878861364 0.3117159980856159 150 146 135
1169.2666855414516 414.1307331942039 0.31257794957013263 145 141 130
