ply
format ascii 1.0
element vertex 718
property float x
property float y
property float z
property uchar red
property uchar green
property uchar blue
end_header
1769.4611587206716 852.0612413185796 5.136411806777829 39 39 39
1769.468801007862 852.1605717895297 5.194256795968393 20 30 22
1769.472834910685 852.206734623063 5.276367014668073 26 26 26
1769.4744062890045 852.2180290017714 5.363388388934978 19 21 18
1769.4696662461604 852.1328513125084 5.5214611611426845 22 22 24
1769.4782661919687 852.2468033213 5.568661633131142 25 26 21
1769.4791687326374 852.2467211716279 5.672701668521739 17 22 16
1769.316602835021 850.3519460980363 4.112985790153432 90 91 75
1769.3333751031853 850.5786147231416 4.148026201351925 89 89 77
1769.339127402527 850.6486098947281 4.224699842124422 80 83 66
1769.3275981682552 850.4696919995195 4.393525467885626 86 89 72
1769.3490710103722 850.7377530446878 4.6231771045456975 79 81 67
1769.2388294011962 849.4977731872427 3.855049392171857 159 150 133
1769.2634678273002 849.8332792613929 3.8546917898093804 152 145 129
1769.2730518262113 849.9559601636803 3.9208383388074557 134 130 118
1769.2877864058478 850.1502723798487 3.974248870273615 68 66 54
1769.2935685613113 850.2194311792243 4.055286861232645 76 76 64
1769.3129284189083 850.4274719082965 4.525803335780083 86 88 74
1769.1297275785166 848.4116171679281 2.1204433859458574 53 52 48
1769.130171517321 848.4040031848489 2.2372298276328317 71 66 63
1769.1339054215987 848.443543652374 2.329612797182035 81 72 67
1769.1370073832181 848.4726800750524 2.438251666754984 152 143 134
1769.14017746296 848.5027974883291 2.546345175914209 147 140 124
1769.1432003555992 848.530916822269 2.6545723046125955 148 145 128
1769.146434611155 848.5620022308135 2.7617758968943145 161 155 139
1769.1508097146625 848.6089514656092 2.86470743388461 159 150 135
1769.1533201536538 848.6300864260787 2.973638315954509 157 149 138
1769.1563993374896 848.6591477646257 3.0802864148478246 158 150 139
1769.1590468887946 848.6822475941431 3.188203144193338 158 150 139
1769.1630270747617 848.7256256893431 3.2761156048398323 154 146 135
1769.1671810432606 848.7680637416919 3.3922143237851214 155 147 134
1769.1710262447539 848.8079710866474 3.494324632760928 153 145 132
1769.175008266538 848.8498423380335 3.5953952663113284 154 146 133
1769.1794814973066 848.8986279324984 3.693905369990947 158 150 137
1769.181254248647 848.9097667205822 3.8033512135505285 159 151 138
1769.2017222821125 849.1822343683376 3.831059014326663 158 150 137
1769.229355019426 849.3754426870735 5.368804706755348 85 87 63
1769.2368888857675 849.4668445362544 5.455362289454788 78 82 59
1769.2413313456482 849.5011561924256 5.674661397299846 48 55 47
1769.2429324545192 849.5087033917409 5.795101192626204 38 42 28
1769.0950185550773 848.1466782919667 2.0574721669298697 80 79 74
1768.9530391812034 846.5266552016187 1.5179133721496412 114 113 108
1768.955414394204 846.5457528309848 1.625930362218382 112 111 106
1768.9604123635895 846.5982857278096 1.7441085530490825 110 109 104
1768.9633312286626 846.6229314503223 1.8664486085109122 111 110 105
1768.9725004289428 846.7335352290826 1.9575260457065975 113 112 107
1769.0231038918955 847.3863711652643 2.0852142351431473 107 106 101
1769.1039738122313 848.0345595891126 5.780916722894789 85 88 67
1768.8989671017061 846.2670189329848 -0.6346205602056394 114 113 108
1768.9007282472928 846.2758186490759 -0.507529634475129 115 114 109
1768.9024590824677 846.2860156100033 -0.3965041334545014 115 114 109
1768.9031542259702 846.2808212674126 -0.2686672995390258 116 115 110
1768.9039726409244 846.2790275925119 -0.15688919165979098 117 116 111
1768.9053535551438 846.2828310248369 -0.029489598175370002 111 110 105
1768.9048837718587 846.2640651102521 0.08373900550695201 115 114 109
1768.907100132853 846.2788568653428 0.21036669110780637 114 113 108
1768.9079214680357 846.2770728166128 0.3224000259972508 113 112 107
1768.9102874503333 846.2938549390631 0.4486882586391512 114 113 108
1768.9118204315478 846.2996568006655 0.5759621517856688 116 115 110
1768.9137751420092 846.3128374776434 0.6864298207190445 116 115 110
1768.9152318250804 846.3176392522354 0.8137434340867136 112 111 106
1768.9256431259234 846.4283139370506 1.0394560995481703 156 155 150
1768.9279950181176 846.4450496132273 1.1645128618658112 181 178 173
1768.9314723827215 846.4767239642877 1.2873132501310038 120 117 112
1768.9343147462139 846.5018136351337 1.3948636681254343 111 110 105
1768.8664013500093 846.2112436588385 -2.082363923815547 121 118 113
1768.8675465453414 846.2120348248337 -1.9551625704997455 119 116 111
1768.8678104140029 846.2032071940562 -1.843987629115989 115 114 110
1768.8677921935541 846.1889739496049 -1.7167996853627623 115 114 110
1768.868397605635 846.1827640882356 -1.5893297954285033 115 114 110
1768.8694423838153 846.1839701985779 -1.4776827836574213 116 115 111
1768.8694305604927 846.1697580414568 -1.3499357332349546 111 110 106
1768.871947878633 846.1899913796605 -1.2383696262108184 113 112 108
1768.8742588806833 846.2058148375294 -1.110945896217833 113 112 107
1768.8763086660665 846.2200312701391 -0.9995744995569258 112 111 106
1768.879311398941 846.2448485456491 -0.8726949712697359 110 109 104
1768.8817713462033 846.2626548968879 -0.7458093116339602 114 113 108
1768.8407705860627 846.2177306742585 -3.286779172093844 123 114 97
1768.84354871171 846.2410117722562 -3.174077833151408 190 176 139
1768.8435735830674 846.2277137396359 -3.048645850775027 139 117 104
1768.8485889157882 846.2776962051382 -2.918453033052134 196 171 151
1768.849382413146 846.2758518645137 -2.8080155512752842 122 122 98
1768.8542306686484 846.3237969120806 -2.6787298672595554 118 110 107
1768.8485706912202 846.2382394105765 -2.55711883169385 119 116 109
1768.8500000190345 846.2444376806271 -2.445891417992517 118 114 111
1768.8501130237985 846.2321735031526 -2.3196042850136775 120 119 114
1768.8500465713844 846.2193177674076 -2.2090016493966087 117 116 111
1769.5079388185493 855.368142076098 -8.017408980349547 170 171 173
1768.8206650022319 846.2814157192525 -4.382175437106825 110 109 104
1768.8225944788671 846.2922202690008 -4.255044484086014 107 106 101
1768.8229902973596 846.2838957838386 -4.1305233173693505 108 107 102
1768.8233074142659 846.2745711570227 -4.005963199694537 109 108 103
1768.8238483099376 846.269687747386 -3.8964321091944845 109 108 103
1768.8228816167864 846.2442798137865 -3.7733974685814715 109 108 103
1768.823366321163 846.2369890415483 -3.6480251486248525 105 108 101
1768.8237517118105 846.2301116056152 -3.538250258651864 106 106 98
1768.8245607497786 846.2268528053736 -3.4122010644070375 109 110 102
1769.4871825193713 855.2130760571232 -8.010107322580412 157 156 152
1769.4751550690446 855.0619776250597 -8.006234215094427 156 155 151
1769.4622910267883 854.9007405818192 -8.00560689334893 155 154 150
1769.4497347878191 854.7419943518202 -7.99205208106169 155 154 150
1769.4369366605995 854.5809745893009 -7.985663807145121 155 154 150
1769.4233070518508 854.4098330614031 -7.982074671701173 157 156 152
1769.410056894433 854.242894703598 -7.973270444455606 156 155 151
1769.395547569161 854.0607343206708 -7.969708962907604 156 155 151
1769.3813089623302 853.8824186833872 -7.970435607766246 161 160 156
1769.3666986772187 853.6984493209205 -7.961723568593096 84 85 77
1768.7996144736032 846.3060068390275 -5.239423990445579 104 103 98
1768.8011373602005 846.311764934302 -5.113311417957387 104 103 98
1768.8025781280255 846.3165142462638 -4.987388791795359 104 103 98
1768.8026266000124 846.3041265152774 -4.864369838740087 109 106 101
1768.804150435684 846.3098877390573 -4.738174317473577 108 105 100
1768.804676263786 846.3049782650753 -4.629332254936874 108 105 100
1768.8053019581164 846.299659898705 -4.50477471048385 109 106 101
1769.3185682170679 853.2262596420803 -7.996719856827711 102 104 101
1769.2943296115106 852.929397528025 -8.033359568422563 37 37 35
1769.2970406269978 852.9523079135654 -7.930500161583619 159 155 154
1769.2738329969106 852.6669344114823 -7.954659637782685 147 147 139
1768.7942135722262 846.532656620649 -6.18353236867167 106 105 100
1768.7948010063774 846.52723836105 -6.06162111487607 105 104 99
1768.7931393180063 846.494548558049 -5.945744212880467 102 101 96
1768.7898173939234 846.4416766680401 -5.833831946155394 100 99 94
1768.785921330185 846.3817639337993 -5.722700499558232 102 101 96
1768.7830322419222 846.3339961648564 -5.608243379590879 103 102 97
1768.7828918216105 846.3195594266341 -5.486433627602211 102 101 96
1768.782007266561 846.2960505438867 -5.366148268002394 104 103 98
1768.7716389978848 846.5115147401132 -6.819346011907444 115 112 107
1768.7733142927354 846.5192356722084 -6.69430600461471 113 110 105
1768.774735568034 846.5239207294809 -6.570087018745828 111 110 105
1768.785531255856 846.6408530173254 -6.417615005054365 107 106 101
1768.7404800498434 846.3904981468204 -7.50059284468766 110 107 102
1768.7445677081912 846.4266094547147 -7.366424303286927 115 114 109
1768.7462578451407 846.4329110019676 -7.225903396809417 136 135 130
1768.7478551916706 846.4396368981251 -7.100688839768892 180 177 170
1768.7521044022378 846.4777411847871 -6.966793683987896 131 128 121
1768.7156196890865 846.3467674406055 -8.177592295046827 104 103 98
1768.7164454844933 846.3429411876418 -8.04002169990098 104 103 98
1768.7188366130003 846.3573716302323 -7.896434220600229 104 103 98
1768.721568474155 846.3772908455065 -7.766664390296418 109 108 103
1768.7254305718577 846.4089393264607 -7.6180411391367056 113 110 105
1768.6895054994654 846.2757988389399 -8.726911677304756 107 106 102
1768.6913822819843 846.2841603460514 -8.584889587784435 114 113 108
1768.6931674505124 846.2929448346799 -8.45821055546475 112 111 106
1768.697153181332 846.3256576430665 -8.307931690493508 107 106 101
1768.662833028362 846.2010851398179 -9.295830946099038 111 111 101
1768.6667688595921 846.2328402953632 -9.144391117718499 104 104 96
1768.6702538890906 846.2609423801351 -9.010133843999425 107 107 99
1768.6714216176506 846.2611798872393 -8.871045815005175 105 104 100
1768.6418282015654 846.192834328464 -9.8553915041128 100 99 95
1768.6416377459998 846.177811909265 -9.722526211185079 102 101 97
1768.6415408090277 846.1638174927847 -9.588962976747279 102 104 93
1768.6443318316005 846.1823742455782 -9.442210716796419 105 105 93
1768.7504570069145 847.655945193114 -10.072809772340314 115 111 102
1768.726460896305 847.3760548605161 -10.057373362178831 115 112 103
1768.70123429495 847.0820688612916 -10.04384700907749 110 107 98
1768.6756040966725 846.7831669168236 -10.02786831249278 105 105 97
1768.650308486663 846.4889534391531 -10.02037329267645 102 102 94
1768.6293516571486 846.2427462707132 -9.988300155992281 100 100 90
1769.6343835787288 857.124880997499 4.548718126281572 25 26 21
1769.585557511631 856.6743750583878 4.584922044086586 11 13 8
1769.5988469587417 856.8184242524826 4.579522092908647 37 40 33
1769.604166356088 856.8714614246114 4.631160972599127 42 45 38
1769.1462082127498 852.5119641258403 1.93521653112881 62 60 61
1769.1363367039899 852.39820944875 2.053350426824263 59 56 47
1769.1393801702027 852.4233835386177 2.136468609310601 113 106 98
1769.2454154115983 853.4102426851252 3.7063384516279845 46 43 38
1769.2625809902056 853.5893368526913 3.7269408756186753 57 54 49
1769.2705904153784 853.668734813658 3.786882843509888 69 60 51
1769.2758533064348 853.7191196765843 3.8478474052577756 87 78 69
1769.2759922187868 853.712695001159 3.9431154560562485 82 80 68
1769.2782958511182 853.729924254467 4.028074130821957 80 78 66
1769.3064404120362 854.0298650393174 3.9857718982997765 80 73 63
1769.0770170022756 851.9080307282533 1.8890941017730116 64 63 59
1769.1185317330066 852.3417590911849 1.8878541099461115 54 53 49
1769.1305983041032 852.4404997040158 2.221575161455548 151 147 136
1769.1344884978269 852.474577947517 2.3017199310186065 141 133 122
1769.1368908717059 852.4927816082867 2.385949413897799 150 142 131
1769.1391057897386 852.5089960729659 2.470560277267589 152 144 133
1769.1423369677711 852.5361025039803 2.551784651537532 154 146 135
1769.1454129881533 852.5606405702877 2.6445957372027182 154 146 133
1769.1478979200808 852.5798020089996 2.727658286522561 156 148 135
1769.1519501545356 852.6157856708244 2.805200403021794 154 146 135
1769.1546136903664 852.6369071262968 2.8871079149763412 155 147 136
1769.1581964547652 852.6679150604534 2.9655309025210412 149 141 130
1769.1611629871152 852.6914065774757 3.057155250160803 154 146 135
1769.1644618117787 852.7194216327982 3.1359094379505157 136 129 119
1769.1678489436908 852.7484134175867 3.2139991703572264 100 98 86
1769.1717238358829 852.7817555858891 3.30118907055852 111 104 98
1769.1752864507039 852.812697099468 3.3778509917327755 124 117 111
1769.1771938481545 852.8258409539849 3.460732097240137 104 101 94
1769.1790400713978 852.83741188413 3.555031556260838 83 83 75
1769.1837834052644 852.8811587540401 3.6259156951392493 70 65 59
1769.199439673558 853.0417837562412 3.661454085783582 66 61 55
1769.2124189342978 853.1737009034846 3.706114813710286 61 60 56
1769.2564423449346 853.5875877580495 4.267814261899162 81 71 59
1768.9606323368523 850.8880394319991 1.064701169396294 111 110 105
1768.9628475189688 850.9042206724955 1.1484281865171442 111 108 103
1768.9639705659135 850.9079226570867 1.2465821139683972 112 109 104
1768.9674585887265 850.936495813843 1.3401280661568433 114 111 106
1768.969052440673 850.9451648132391 1.4371689782978778 112 109 104
1768.9710722739887 850.9593360848403 1.5207270615494999 111 111 103
1768.9733249974183 850.9749580626735 1.6161874198928354 109 109 101
1768.9787827173886 851.0243673527491 1.7043871417077494 111 110 106
1768.9831028032506 851.0618304182676 1.7945849390277606 109 109 101
1768.9872295844714 851.0972902532103 1.8847924613856903 111 111 103
1769.0137468079884 851.3691144747463 1.9202833161389792 105 105 97
1769.209540135287 853.1858900093382 4.536957884049504 86 84 71
1769.2066047574672 853.14616133235 4.652305536773529 83 81 69
1769.2061425719935 853.1330265755543 4.755598812186856 83 85 64
1769.3958057399104 855.0402428972168 5.467236131269824 26 27 29
1768.9153898132422 850.7078407209165 -0.9205888185514877 110 109 104
1768.9184617227024 850.7315746936996 -0.8225450916392913 109 108 103
1768.9200323400917 850.7408343801819 -0.736405696827151 109 108 103
1768.9214527300812 850.7475576899337 -0.6378301065836032 112 111 106
1768.922485472034 850.7502816050863 -0.5390467985823167 117 114 109
1768.923615089493 850.7540052485616 -0.4403186103580925 118 115 110
1768.9241201766952 850.7522682543942 -0.35356412456979114 117 116 111
1768.9239944552635 850.7430087559047 -0.2537660493514988 115 114 109
1768.924308319276 850.739280637746 -0.16668039312836025 115 114 109
1768.924185837473 850.7300318182897 -0.066599175445617 115 114 109
1768.9266675871977 850.7477380613162 0.03099682774781476 119 118 113
1768.9272722602436 850.7470097297612 0.11793307632790428 117 116 111
1768.928500167695 850.7517377642356 0.21672977035813612 115 114 109
1768.9293432378292 850.7524756693 0.31597983814343356 112 111 106
1768.9324931416925 850.777147131196 0.4123182431406829 115 114 109
1768.9341543834732 850.7873859399793 0.49785617285703165 114 113 108
1768.9370114797716 850.8090510273611 0.5941693145122178 112 111 106
1768.9382358190685 850.8137672998581 0.6926541530393504 107 106 101
1768.943439494548 850.8608577405402 0.7724853579014497 120 120 110
1768.943415622137 850.8526143649453 0.8726629968444419 186 186 176
1768.9456898227688 850.8682756676701 0.9691632919687596 111 110 105
1769.1952436882036 853.1217596746399 4.858307726647528 76 79 58
1769.2366834795314 853.5237129960517 5.156549043386197 63 67 52
1769.2428706054404 853.5822099419339 5.220069407275683 54 61 45
1769.3394876860393 854.5395825902214 5.662205711992311 55 54 49
1768.8909386275395 850.6665388924112 -1.95902480135754 114 113 109
1768.889365718442 850.6437320357343 -1.873110503738046 115 114 110
1768.889317266086 850.6354391074417 -1.7742439802743823 113 112 107
1768.8907471684504 850.642185905546 -1.6750463025148545 113 112 107
1768.8927668357796 850.6549433960769 -1.5758539856224942 111 110 106
1768.8949384677742 850.6702351220114 -1.4891553185602437 109 108 104
1768.8962677580464 850.6759724972717 -1.3901593337622087 111 110 105
1768.8971059699204 850.676702255693 -1.2911245854453703 109 108 103
1768.899274380538 850.691983362758 -1.2047074656787569 106 105 100
1768.901974733415 850.7117290217057 -1.106165851332204 106 105 100
1768.9025179076696 850.7094529225235 -1.007141981516699 107 106 101
1769.2184882891638 853.4074739907722 5.610277189093512 57 61 46
1769.2339118657674 853.5640476376307 5.617976466098215 37 39 28
1769.2360996856912 853.5787149574667 5.714681723022938 32 34 31
1769.228426658146 853.4802228762328 5.971972869573116 26 29 22
1768.8795898954002 850.750130699199 -2.900077269541681 114 115 110
1768.8829747126247 850.7774918064323 -2.8121221891624373 113 114 100
1768.8781952565746 850.7219033733911 -2.718814550541345 122 115 109
1768.879220990767 850.7246094336717 -2.620504191212416 117 114 109
1768.879747531209 850.7222942392118 -2.522515529314262 120 119 114
1768.8799345115467 850.717509437247 -2.436881239211208 116 115 111
1768.87996424005 850.7101808393919 -2.3390061052136275 119 118 113
1768.88009523274 850.7038611912594 -2.240942049045534 117 116 111
1768.8794310051026 850.6895190388158 -2.1430877124894803 116 115 110
1768.879324687452 850.6817419817338 -2.057102966830027 116 115 110
1769.0594653329738 851.9115397363281 5.527964297960043 83 86 67
1769.0583222331638 851.8908930268489 5.644596103960894 80 83 62
1769.0572766559976 851.871242933561 5.761089822525427 75 79 56
1769.0983177553944 852.2684860445593 5.9873930390454975 67 76 59
1769.2270075012457 853.5663333202081 6.026808947687794 25 26 20
1769.2311406873785 853.6015624918766 6.110878949334031 50 48 49
1768.855441856577 850.6759056822825 -3.4833367303937868 108 109 104
1768.8560622485336 850.6745881159408 -3.3854581932753662 112 106 110
1768.8578981527771 850.6853476017525 -3.286119858816192 196 167 127
1768.8598957564586 850.6986576764173 -3.198842940081396 172 158 132
1768.8673907795444 850.7657329900052 -3.0938521716211462 170 153 127
1768.8649764517263 850.7342361796732 -2.9992682027935373 181 161 134
1769.0411577789878 851.7803814156084 6.356863014047815 76 79 60
1768.8372843234336 850.6625642547042 -4.072637310166251 104 103 99
1768.8381029596349 850.6632530883793 -3.974685596509773 102 101 96
1768.8386146298922 850.6609203482391 -3.877159420282002 103 102 97
1768.838205621336 850.6495236086155 -3.780890714314589 103 102 97
1768.839128988707 850.6512275751533 -3.6825865925651184 103 106 99
1768.841381884782 850.666022862336 -3.582495901368544 103 103 93
1768.8251521684663 850.700399543972 -4.553506360873694 106 105 100
1768.8247187773507 850.6889617703156 -4.458322228092643 105 104 99
1768.824702100915 850.6815667524426 -4.362200670670387 105 104 100
1768.824790588726 850.6751856723479 -4.2657586179718825 105 104 100
1768.8251909919986 850.6718346135294 -4.168667732532143 105 104 100
1768.8092674944567 850.7009791747746 -5.039356076912282 102 101 96
1768.8096542073536 850.6976013460223 -4.9429733803425915 100 99 94
1768.810985090684 850.7033177459058 -4.844535799034074 102 101 96
1768.8105354206434 850.6918656508403 -4.749727984486055 103 102 97
1768.8104018855247 850.6834496179691 -4.654111848636827 103 102 97
1768.7933932075057 850.7021554153613 -5.535959337198815 96 95 90
1768.7934521358854 850.6957293496662 -5.440705496457229 100 99 94
1768.793406557858 850.6882967600188 -5.345575128762448 96 95 90
1768.794421521115 850.6909804285988 -5.247857327445506 100 99 94
1768.7952593215782 850.6910940073293 -5.138592439061018 102 101 96
1768.7832616617363 850.7511709732428 -5.93296457100854 99 98 94
1768.7821262069667 850.7335805007403 -5.841520509998795 97 96 91
1768.780919401576 850.7144360119738 -5.738152238152368 99 98 93
1768.7819302723444 850.7171088128426 -5.640722355365852 98 97 92
1768.7757635623702 850.8236377414813 -6.319184436352862 104 103 98
1768.7767636058725 850.8262774742832 -6.222631089389064 100 100 92
1768.7753061713631 850.8050535667171 -6.121263396854381 98 97 93
1768.7732042912771 850.7777646070214 -6.021320756736032 99 98 94
1768.7648182800378 850.863351721076 -6.723797238822896 108 108 100
1768.763055937584 850.8254883634794 -6.426062879050238 101 100 95
1768.7511212514185 850.8767663542214 -7.135061176284056 137 137 129
1768.7526926361625 850.8839008513106 -7.0255908945776575 172 172 164
1768.7522763273591 850.8727554276255 -6.922635047277979 119 119 107
1768.7524140720525 850.8666940768856 -6.817702142139875 103 103 91
1768.7354640417382 850.8653976690064 -7.4596338097626 108 107 102
1768.7357001577666 850.8603357320637 -7.354764816710971 102 101 96
1768.735714863076 850.853246105762 -7.250528706201207 110 109 104
1768.7248783197954 850.899824567299 -7.765401656606026 103 102 97
1768.72138640854 850.8611695025706 -7.674578315345925 104 103 98
1768.7227384251485 850.8662725527445 -7.565841449578538 107 106 101
1769.1384416335632 854.8418453300569 -8.042524907870108 152 151 147
1769.1201807254351 854.673513471694 -8.042741014043685 141 140 136
1769.1029797276472 854.5138248590835 -8.026310889848304 133 132 128
1769.0870894351965 854.3661808983064 -8.00930992589889 131 130 126
1769.0689362475307 854.1988477999422 -8.009609997054737 113 112 108
1769.0482788877732 854.0084555332098 -8.01030383216452 105 104 100
1769.0312193847176 853.8498770132783 -7.991005813061456 86 91 84
1769.0133887003335 853.6842506797667 -7.9726179025986745 46 45 43
1768.9798872209826 853.3787843334351 -8.022530692566644 107 113 113
1768.9648841889505 853.2385708265227 -7.994474346321126 129 130 125
1768.9468168463552 853.0708770328674 -7.977772889639859 53 52 47
1768.7087038015945 850.88340376362 -8.091111812518454 99 98 93
1768.7086904357525 850.8762793029862 -7.987794311555139 100 99 94
1768.7102683463975 850.8834117078713 -7.878381540890252 103 102 97
1769.181955766337 855.321472057888 -8.047972028206765 155 154 150
1769.165771250612 855.1726053315379 -8.036792602762814 164 163 159
1769.1468440849983 854.9999536458176 -8.045245257620962 166 165 161
1768.6918097552254 850.8614268550648 -8.43130807577408 112 111 106
1768.6938495860786 850.8726382553486 -8.32000676821069 111 110 105
1768.6940548723976 850.867545504179 -8.215948663608236 102 101 96
1768.6782176411905 850.8618732598042 -8.655148854986685 100 99 94
1768.6791071253795 850.8628900511619 -8.548493560425202 102 101 96
1768.6694072666019 850.9047386709773 -8.870058456861797 95 94 89
1768.668094314928 850.885787176771 -8.761526264556917 100 99 94
1769.09161833619 854.6838583451319 1.7973432567369614 43 42 40
1769.1280728437628 854.9952362125939 1.7906987901575449 53 52 47
1769.141675426366 855.1089356694924 1.8297570714002946 63 62 57
1769.135083800701 855.0472436660025 1.9209475124055937 65 66 58
1769.1354401652147 855.0453442596723 2.003424137909409 111 107 98
1769.1377435692632 855.0609298505112 2.071281617545382 157 148 133
1769.1399313041252 855.0755193287349 2.139295746189804 145 137 118
1769.1424583809462 855.093071876106 2.206169956907077 148 138 126
1769.1449720787161 855.1099654975719 2.2821409402497883 147 137 125
1769.1464728252595 855.1186014630781 2.3517091029382273 151 143 130
1768.9423051484055 853.6136452297236 -0.1672432681463618 113 112 107
1768.9420570440077 853.6067053758609 -0.08556890099653547 114 113 108
1768.9444994321282 853.6227150157061 -0.006471187040152815 115 114 109
1768.9450720882535 853.6233783036939 0.06425048854596294 114 113 108
1768.946460895697 853.6304051381481 0.14428835132694706 112 111 106
1768.9476157099732 853.6354362415109 0.22454701121456777 116 115 110
1768.950403073999 853.654419654098 0.3027879213868456 115 114 109
1768.9512066065008 853.6564561982065 0.3833522542334 110 109 104
1768.953992159432 853.6760458416014 0.4510990144588749 111 110 105
1768.9546767101476 853.6764657753345 0.5419361006922789 110 109 104
1768.9589581657058 853.7040474799943 0.6887449460639286 202 197 191
1768.9584812697976 853.6951290416567 0.7710947334323268 157 152 146
1768.9605609781263 853.7081065501003 0.8495019374234201 110 109 104
1768.9627552829759 853.7220740125805 0.9275889781621791 109 108 103
1768.964716014441 853.7340471277313 1.0059335048902927 108 107 102
1768.9673708955454 853.7519816259862 1.0829313128773725 108 107 102
1768.969444398388 853.7649386788171 1.1607961594717702 112 109 104
1768.971170685322 853.7755267758699 1.2289861734363459 114 111 106
1768.973357205937 853.7894685785889 1.3063928746760156 109 108 103
1769.0444298892512 854.3622979144504 1.8023905785766334 84 83 81
1769.1399256737116 855.1344019322403 2.427802150323161 149 141 128
1769.1419998202766 855.1479733078785 2.4953873971762137 154 146 133
1769.1446308376374 855.16582914227 2.570299521939239 150 142 129
1769.1476136253575 855.1872933473328 2.634612815067067 148 140 127
1769.1502395231923 855.2051323058438 2.7090774949778202 148 140 129
1769.1539001346484 855.2325040777004 2.7706171908606647 148 140 129
1769.1570893874584 855.2552610701133 2.842639602960462 147 139 126
1769.1601616436847 855.2770201969806 2.914772413613579 146 138 125
1769.1634580373068 855.3007425666132 2.9858230360006024 147 139 128
1768.916722087716 853.551455269141 -1.3350574644828477 107 106 101
1768.9176451720016 853.5544981016945 -1.2543802065556786 108 107 103
1768.9204685945447 853.5735584139875 -1.174104012024476 107 106 102
1768.92186880752 853.5812219328682 -1.1037539885572574 107 106 101
1768.9231462614518 853.587261635453 -1.0233218154955024 111 110 105
1768.9239490323507 853.5892982917014 -0.9427542828708521 105 104 99
1768.9259368317003 853.6013370287427 -0.8626719046843107 108 107 102
1768.9269793350181 853.6059926676595 -0.7923687122446047 108 107 102
1768.927781585751 853.6080276092463 -0.7118466419311478 115 114 109
1768.9277560340283 853.6030667556697 -0.6308348581256353 111 110 105
1768.9293865252516 853.6120989363454 -0.5507642172527027 111 110 105
1768.9292471119875 853.6067627523576 -0.4797038940921332 114 113 108
1768.930994996369 853.6167914831677 -0.3997787549268912 112 111 106
1768.930381949564 853.6068461341757 -0.31808572247852696 112 111 106
1768.931067947853 853.607888285851 -0.2373184524065166 114 113 108
1768.9669668979866 853.8152231259568 1.3810166118554152 110 109 104
1768.9681084883484 853.8195958148048 1.4703856033033917 109 108 103
1768.9727430726307 853.8549892257225 1.5320611120962553 109 108 103
1768.9781810390264 853.8960787768056 1.6119238265603977 106 106 98
1768.9830353522307 853.9328060749767 1.6823979451845934 109 109 101
1768.986840235943 853.9605878556474 1.754802897430981 103 103 93
1768.9950486589212 854.0260493270084 1.816661978865705 106 105 100
1769.1562381849499 855.310219615609 3.0536264248138743 146 138 127
1769.1608027750358 855.3447727211752 3.1195900887238883 142 134 123
1769.1641060183542 855.3684625939214 3.1897743361951756 143 135 124
1769.1677481358554 855.3950982578307 3.258359200478127 144 136 125
1769.1710442337394 855.4187645765405 3.327918939358809 144 136 125
1769.173995051189 855.4394639866753 3.398518157174183 143 135 124
1769.1770710003682 855.4617950343696 3.4592425973408165 140 136 124
1769.2166551360579 855.7891729695524 3.5578661140161403 144 138 122
1769.2346674207072 855.9405945322048 3.560884473207598 130 125 119
1769.249345854704 856.0627391251536 3.5846941344899594 86 86 76
1769.2576748282681 856.1304267110918 3.6258724233855695 61 61 49
1769.2583843343982 856.1315463534411 3.708694270889765 74 75 61
1769.2736004096637 856.2591206830956 3.7170598523962513 81 82 64
1769.2824410345304 856.3309331766748 3.7613337961613347 75 78 59
1769.2955626768185 856.4400214829204 3.7843535008676605 72 75 56
1769.3031323455405 856.5009390675614 3.83200817181355 78 81 62
1769.3165574724896 856.6128565078141 3.8503354610015634 70 75 55
1769.3256789502454 856.6874235325774 3.8879389799192134 76 81 61
1769.3336854028728 856.7528288119813 3.9217402957422287 71 76 56
1768.9003953459116 853.5441502494726 -2.1103765189120756 113 112 107
1768.8992759743676 853.5307490920945 -2.0406030079249042 114 113 108
1768.8992363721977 853.5257629043227 -1.9602611194974435 114 113 108
1768.8987171059314 853.5167677414364 -1.879940160288967 113 112 107
1768.9001217524622 853.5238258061155 -1.7990760755861777 112 111 106
1768.9006899476897 853.5244848799867 -1.7284652264707479 111 110 105
1768.9012539135774 853.5245230568474 -1.6477486321337405 114 113 108
1768.9031374941474 853.5355876900984 -1.5669274249645193 110 109 104
1768.9032221244645 853.5316179747887 -1.486203046807847 106 105 100
1768.9048649056604 853.5406749318133 -1.40547684819525 108 107 102
1769.1694682038474 855.4659746220224 3.5459645793477943 137 133 121
1769.1881116118727 855.6215084033777 3.551707050971312 139 133 117
1769.3315135994478 856.7958558007883 3.9754441684781305 69 74 51
1769.3321637070899 856.7967848887473 4.053214135229932 73 78 55
1769.3302114308697 856.7751755650223 4.14447054895436 60 65 43
1769.3391186043652 856.847630796534 4.179201978840757 48 54 42
1768.8904445694707 853.5770860604067 -2.6689527872142786 118 115 110
1768.8899022563796 853.5680463985622 -2.5898089493047713 117 114 109
1768.8900911818625 853.5650431708312 -2.5100260148915376 117 116 111
1768.889916459213 853.5590282237088 -2.4303903504982762 117 116 111
1768.8908359662184 853.5620592642033 -2.350025745658613 119 118 113
1768.890056404445 853.551028875884 -2.270527059819299 117 116 111
1768.890491777331 853.5500466970656 -2.1902950082537123 113 112 107
1769.332132160014 856.8484701514343 4.2567591521581365 43 49 35
1769.335847126602 856.8758243980124 4.317817196608485 30 38 27
1769.33490009136 856.863033288534 4.403769060752794 24 32 21
1769.3571964392486 857.0501450021021 4.369973886342732 22 33 17
1769.3711771857866 857.1657290720016 4.379194010420062 19 29 18
1768.8878849520286 853.6690018498988 -3.2047437920755177 120 103 87
1768.8876877243515 853.6629363217776 -3.1264471869372326 188 162 139
1768.8796274208291 853.5924416905236 -3.056026199074415 186 166 139
1768.8907358377487 853.679001150319 -2.9661922487283725 118 114 105
1768.8850174295524 853.6276587791721 -2.8927737840784924 116 115 110
1768.8790615818218 853.5743302977705 -2.818877624619205 111 110 105
1768.8805918440064 853.582383167654 -2.73820779811808 115 114 109
1769.3580194966855 857.1117221338126 4.490334519607512 23 26 17
1768.865866337034 853.5883502441918 -3.533629512839039 105 104 99
1768.8687653682716 853.6074919402967 -3.451210015612059 108 100 98
1768.8700504374447 853.6135252735439 -3.37094943648341 169 149 125
1768.8712111703676 853.6185496602952 -3.2908711250764338 198 172 147
1768.8518379430518 853.5731643060442 -3.853723504867788 103 102 97
1768.853628426161 853.5832416648308 -3.7725169779770464 99 100 92
1768.8544173963876 853.5852459422263 -3.6928068013874755 102 102 100
1768.8548315475916 853.5842252808064 -3.6135923542394783 105 104 99
1768.8403411020333 853.578809739018 -4.17945036324855 100 99 94
1768.840623162495 853.5767703053996 -4.100677342111658 105 102 97
1768.841524803751 853.5791486115025 -4.011049991566173 107 99 96
1768.841934156406 853.5781226229402 -3.9319758815119163 97 96 91
1768.8263357167616 853.5642672616988 -4.509055244138352 100 99 94
1768.8281272055378 853.5737199986672 -4.41784354318505 99 98 93
1768.8294218942292 853.5797614374352 -4.337370093983973 97 96 91
1768.8299530785198 853.5797387618882 -4.258262855051666 100 99 94
1768.812454439597 853.550732978831 -4.838497796916655 100 99 94
1768.8143953440829 853.5618397037509 -4.756573261594511 99 98 93
1768.815051489341 853.5628254113332 -4.6772989184847305 99 98 93
1768.8159503480426 853.56519979043 -4.587775235031205 100 99 95
1768.7988521323957 853.5357796344441 -5.099284952581531 97 96 91
1768.8003980049975 853.5432193078802 -5.008310192447408 97 96 91
1768.800793984085 853.5421807070501 -4.929567764220803 100 99 94
1769.081584137069 855.2037540750638 5.7533253708834575 33 40 33
1768.7870511113747 853.5343738020433 -5.346285051447269 95 94 90
1768.787948008836 853.5367469614945 -5.256793252489082 98 97 92
1768.7870355478017 853.5255722262702 -5.1810963917694215 98 97 92
1768.77594204251 853.5386913141019 -5.600963127252859 94 93 89
1768.7763106747923 853.537002820462 -5.512879667322465 94 93 89
1768.7764345643423 853.5339268340174 -5.435013616038132 96 95 91
1768.766984164081 853.559276221624 -5.84946586716933 92 91 86
1768.766435970939 853.5511100034149 -5.773707096842172 92 91 86
1768.7661358190815 853.5443395286063 -5.687512389181929 93 92 88
1768.761718025775 853.6079866687484 -6.0962490166059675 93 92 88
1768.760065033133 853.591028114386 -6.014468989022458 93 92 88
1768.7581482902801 853.5720491732835 -5.933115538537603 92 91 87
1768.7567077759816 853.6578092516871 -6.340142491174108 94 93 89
1768.754759758851 853.6387849175468 -6.259987602362524 93 92 87
1768.7541609778475 853.6299367806558 -6.175733079314932 91 90 85
1768.7507947573774 853.695792922332 -6.499388582998132 97 96 91
1768.7488219543525 853.6767445833017 -6.419865173346512 94 93 89
1768.7544023595115 853.809203347455 -6.7313785164432005 99 94 90
1768.7505942810935 853.7762163333937 -6.649416968325222 97 96 91
1768.7391691440912 853.6869017817958 -6.599482458314221 97 96 91
1768.7408885021885 853.7892610504933 -6.911933784515843 120 117 112
1768.7389998260464 853.7711704155344 -6.833579720057728 100 95 91
1768.7369487348608 853.844811610649 -7.163489771195709 111 112 107
1768.7355593453933 853.8301089985908 -7.075017291355155 159 158 153
1768.7332305976438 853.8089356879532 -6.998676193036846 158 155 150
1768.726841486399 853.8500242734308 -7.3414007513400845 106 105 100
1768.7265507707466 853.843468490763 -7.249497868831244 102 103 98
1768.7140838789976 853.8358520423388 -7.528409501453089 108 107 102
1768.715923548177 853.8452590317956 -7.438428412011772 106 105 100
1768.7017687588914 853.8253931414746 -7.723250961488405 100 99 94
1768.7021674801133 853.8239349657554 -7.629049557133633 104 103 98
1768.6951549937394 853.8558189625705 -7.896994291223677 97 98 93
1768.6916955131835 853.8267550724532 -7.817258160603536 101 102 97
1768.685165916389 853.8617422462695 -8.0826567788471 97 98 90
1768.685406698222 853.8592404129029 -7.989551400170732 99 100 95
1768.6778406087387 853.8867641743927 -8.266839617086857 96 97 92
1768.677893413081 853.8825651643807 -8.16558492363299 95 96 91
1768.6753848004194 853.9456223285086 -8.430835311360063 84 83 79
1768.67120248173 853.9117074113938 -8.3468291086757 92 91 87
1768.6685391340047 853.9685547518443 -8.511012737236872 79 80 75
1769.1379812718867 856.8808534965787 1.7127673535426913 49 50 45
1769.1507103920387 856.9704556708974 1.7499740733192295 60 61 56
1768.663787691443 854.0101069993145 -8.682146738088672 40 42 39
1768.660303993442 853.9819216726294 -8.60565426659915 70 72 69
1768.9305846227892 855.5791905274555 -1.0944143164297397 105 104 99
1768.9302826409437 855.574423719076 -1.0347827325016117 107 106 101
1768.9330196309195 855.5909885917213 -0.9676201162569038 107 106 101
1768.9311354604251 855.5745411018831 -0.8988003833615195 110 110 102
1768.9348500727801 855.598099947905 -0.8322185943109766 109 109 101
1768.9338074937523 855.5876592563445 -0.7635795025836161 111 110 106
1768.9358414053688 855.599212688056 -0.6964194882383472 112 111 106
1768.936197828499 855.598771294245 -0.6284004988871219 112 111 106
1768.9368765535241 855.6010086268848 -0.5690801586236254 113 112 107
1768.938070872206 855.6065618482291 -0.5015648321252202 114 113 108
1768.938148982396 855.6041254981989 -0.43329181604044265 114 113 108
1768.939064212452 855.6076812063725 -0.36559025748307206 112 111 106
1768.9392826700175 855.6062462601246 -0.2973401699999694 112 111 106
1768.939362459339 855.6038154451426 -0.22892039838432177 113 112 107
1768.9410161420346 855.613037967278 -0.17041377996180573 115 114 109
1768.942209393008 855.6185876690538 -0.10299177083900868 116 115 110
1768.941177527569 855.6081822935071 -0.033416315017942955 113 112 107
1768.9420931317793 855.6117392350337 0.03431794450011094 111 110 105
1768.9441197610756 855.6232686614821 0.1008414864886702 112 111 106
1768.9483662503728 855.6507358381458 0.16475217316058433 114 113 108
1768.9501115826204 855.6602604716318 0.23126893178163854 113 112 107
1768.952133247528 855.67177353359 0.29735858785284197 112 111 106
1768.952906159054 855.674321340316 0.36491079677999627 108 107 102
1768.9558955723176 855.692795827161 0.42955663932876464 106 105 100
1768.9659440253954 855.7620166325812 0.4844088430002429 109 106 97
1768.9662957214052 855.7615596564063 0.5520146836286914 185 182 173
1768.9605621124254 855.7173375201933 0.6284935649829249 203 196 188
1768.9631297261271 855.7328052989033 0.693141993830946 101 100 96
1768.9651427763602 855.7442899636579 0.7584787302220317 105 102 97
1768.9682592590848 855.7637220852905 0.8219411588570795 107 108 102
1768.971097218978 855.7811585588229 0.8856392697843207 104 103 98
1768.9729673575093 855.791633366814 0.9507748135587419 105 104 99
1768.9742848307208 855.7981313178609 1.0167645624328643 109 108 103
1768.977117534202 855.8155504642859 1.0800032647417288 107 106 101
1769.0673925556468 856.4304640855828 1.7316462272459747 51 50 46
1769.102726213585 856.6832449211038 1.7106178095255336 47 46 42
1769.144428575862 856.9758762123718 1.8160885403480254 62 64 53
1769.1434728218937 856.966260494934 1.8800268709272177 131 127 118
1769.1475148830468 856.9925150335323 1.9383598484955253 153 146 136
1769.149644480792 857.0049226487782 2.0015935561517306 143 133 121
1769.153731215329 857.0318632137419 2.05154173019638 144 136 123
1769.1558563871024 857.0442562393229 2.1143886094152364 144 137 121
1768.6560577600458 854.0265772360956 -8.774244808690812 18 23 19
1768.9136597246518 855.5453732362225 -1.69631765976133 110 109 104
1768.9147194717468 855.5499388476157 -1.6284141298838248 105 104 99
1768.914364095488 855.544478246437 -1.5606018485164583 108 107 103
1768.9152825784672 855.5480420547976 -1.492685749194099 106 105 101
1768.9159182411915 855.5496012944757 -1.4247700336830529 101 100 95
1768.9171632729035 855.5558499604504 -1.3653907021352258 108 107 102
1768.9193520560916 855.5684264464545 -1.2976818427765662 104 103 98
1768.918575707331 855.559969731449 -1.2295853994929047 106 105 100
1768.9210452118596 855.5745438673252 -1.1620596007365198 106 105 100
1768.9688309286412 855.8130211998296 1.1481861705504295 107 106 101
1768.9719495902732 855.8324159185781 1.2106530533576974 108 107 102
1768.9735006235014 855.8402094239392 1.2844178091741043 104 103 98
1768.9762001469 855.8566140752993 1.3473291683634552 107 106 101
1768.9787594008856 855.8720202025411 1.4103400336980119 104 103 98
1768.9825601269479 855.8963439790728 1.470624089927459 104 103 98
1768.987280832 855.9269172125881 1.5371599665877527 105 105 97
1768.9901085149882 855.9442804695399 1.5989134251239354 103 103 95
1768.9938994765357 855.9685720585634 1.6583440660379944 106 105 100
1768.999986874774 856.0090118606261 1.7207384107609875 104 103 98
1769.0247109259822 856.1838005796708 1.7311451851414261 103 100 95
1769.1509873378254 857.0595299974333 2.175993263345636 146 138 127
1769.1539377688548 857.0778340214792 2.236115853675356 145 137 126
1769.1572114268567 857.0988119533703 2.28741135550643 145 137 126
1769.159609915074 857.1131519928083 2.348730352408288 144 136 125
1769.1646011552225 857.1462254419514 2.4018338882044716 142 134 123
1768.9030575363452 855.5532629805143 -2.2288054914182576 115 115 107
1768.9016881895325 855.5407462874497 -2.162054401460236 113 112 108
1768.9027495875935 855.5453120957079 -2.0941461049572263 111 110 105
1768.902953994712 855.5438518152647 -2.026565912852176 113 112 107
1768.9031589858766 855.5423934600557 -1.9589346753450834 112 111 106
1768.9038380941818 855.5446320561302 -1.8995808365364966 109 108 103
1768.9036162051266 855.5401659810462 -1.8319724787883618 110 109 104
1768.9046778404563 855.5447325714308 -1.7640434450907725 106 105 100
1769.160076975778 857.1634303044963 2.4614670941870687 143 135 124
1769.1645352941493 857.1925316574307 2.515545850782029 142 134 123
1769.1672066683252 857.2088068010063 2.5750202865954703 140 132 121
1769.1701498107273 857.227044836287 2.63338963535132 142 134 123
1769.1730903249234 857.2452742080139 2.6915292797979813 140 132 121
1768.902202345869 855.6233968134044 -2.625732126625814 113 112 107
1768.9013849126875 855.6148623674437 -2.559691648252845 115 114 109
1768.8999927164352 855.602309694086 -2.4938911373008272 113 112 107
1768.899034768235 855.5927811597367 -2.4276330914094935 116 115 110
1768.8969270018704 855.5752152079762 -2.361880503061081 116 115 110
1768.89597314199 855.5657001502658 -2.295265139355454 113 112 107
1769.1677543232622 857.2558165779012 2.7605135745790568 138 130 119
1769.1715283210133 857.2799368504219 2.815391985902302 137 129 118
1769.175573693796 857.3060134731929 2.8689914178863134 138 130 119
1769.1794777119942 857.3310932400512 2.922735039623255 138 130 119
1768.8919959763105 855.6247522377637 -2.9594594290256544 112 109 104
1768.892908667841 855.6282890873259 -2.892258791237693 111 110 105
1768.893240191626 855.6277970879547 -2.8255788328200397 110 109 104
1768.8927010588789 855.6212654249972 -2.7595841833290162 112 111 106
1768.8924534590785 855.616751315012 -2.693246245374521 112 111 106
1769.1757750281247 857.3531360172171 2.9777212934655433 134 130 118
1769.1793579948771 857.3755123302122 3.039505453309366 132 128 116
1769.182937311344 857.397876610494 3.1009705793904256 130 126 114
1768.889817757869 855.6787806673617 -3.225385411567026 104 102 103
1768.8826227636987 855.6261523618211 -3.159132172118296 185 161 127
1768.8810479407432 855.612550709567 -3.09456220483586 127 121 107
1768.8873741720215 855.6533791492842 -3.021898003071959 114 111 106
1769.179842901983 857.4238172864306 3.1529864902390585 134 130 118
1769.1837078383871 857.448121929455 3.212743309998726 133 129 117
1769.1858256625023 857.4603596009196 3.27145982513521 132 128 116
1769.1899606582585 857.4866057665423 3.329543621096759 133 129 117
1768.8704592785757 855.6141232507347 -3.5022669524513272 102 103 97
1768.8716684650772 855.6196782739461 -3.4347079287389746 141 131 106
1768.8739093272604 855.6322952984071 -3.3659355638049275 190 162 123
1768.880370503753 855.6734689068012 -3.284128213138078 139 122 106
1769.1834565327588 857.4879582272667 3.393991666210672 132 128 116
1769.1897705303713 857.5291697088805 3.450227807911082 128 124 112
1769.2043906102933 857.6296659936571 3.4572354983222526 130 126 114
1769.2238724001238 857.7639713237638 3.457088991009739 123 121 109
1769.234509315037 857.8361697276902 3.484496289322216 97 93 81
1769.246597006013 857.9183807354351 3.5116226897877922 80 76 64
1769.2592225874419 858.0044569525456 3.5349292397575542 63 63 53
1768.8619118971048 855.6212946342531 -3.7083812375545753 101 100 95
1768.863218732133 855.6271636756809 -3.632497056124362 101 100 95
1768.8617571219697 855.6145395481667 -3.5685774803601227 105 102 97
1769.2637418611566 858.0803653261297 3.556282105325095 68 68 56
1769.2791858226233 858.1859172041385 3.5644324664587437 62 62 50
1769.2846620356265 858.2216627117383 3.608613670525111 68 69 55
1769.2947917097651 858.2899212202984 3.6378454282203476 71 74 57
1769.304074817228 858.3522666825386 3.66975306760808 68 71 54
1768.8526470864676 855.6234334978813 -3.9150547440685957 99 98 94
1768.8526640427601 855.6209004684125 -3.8493360132203938 98 97 93
1768.85397332686 855.6267697148926 -3.7734470746051443 98 97 92
1769.2979737823732 858.351685665547 3.7358964864126785 69 70 54
1768.844608157398 855.6336821709463 -4.119318803427862 98 97 93
1768.8443174752072 855.62911783865 -4.054304525172433 99 98 93
1768.8439728651429 855.6238605777394 -3.981086410089497 98 97 92
1768.83706126075 855.64699596985 -4.322051519758414 98 98 88
1768.8349423878924 855.6302731200593 -4.2604896064456685 97 96 91
1768.8355541858577 855.631777296553 -4.1940317902662265 101 100 96
1768.8285460259206 855.653948109758 -4.534006888507101 97 96 91
1768.8251278258567 855.6284027694115 -4.467170450066939 99 98 94
1768.828637104682 855.6491491720965 -4.3954802133880815 99 98 94
1768.821291984897 855.6690372907441 -4.7428384954483755 97 96 91
1768.816459745364 855.6343385331829 -4.679497600090683 97 96 91
1768.8175288558957 855.638877311252 -4.612310508700884 98 97 92
1768.811748499608 855.6663655324621 -4.891052503789559 94 93 89
1768.8085815209377 855.642804524505 -4.824744975489277 97 96 92
1768.8033212118926 855.6733820295194 -5.101320995813521 93 92 88
1768.804485182651 855.6782230118514 -5.026122206818243 94 93 89
1768.803219989678 855.6675258269504 -4.964242519942952 95 94 90
1768.7953683093049 855.6808847459333 -5.245549901638071 91 92 86
1768.7938701797066 855.6684549569796 -5.17645047746359 93 94 88
1768.787125050199 855.6863685419873 -5.390158803689745 92 91 86
1768.7863996162282 855.6790092051197 -5.319506887159254 91 90 85
1768.7792202660462 855.6938987413643 -5.5336703555715046 90 89 85
1768.7792769871276 855.6916148117031 -5.461336832415766 90 91 85
1768.7718350713228 855.70749753582 -5.755488707216054 88 87 82
1768.77268283196 855.7102920733334 -5.681394710983471 89 88 83
1768.7730519702454 855.7100342176032 -5.608497185614324 91 90 86
1768.7646994837175 855.7198479900773 -5.904102074946823 90 89 85
1768.7640339445122 855.7127647689389 -5.82612246725605 89 88 84
1768.758375984139 855.7342946627008 -5.970566196328899 88 89 84
1768.7542332389205 855.7650308611068 -6.110136369009862 88 89 84
1768.7481839242505 855.7242913753336 -6.047410476469256 89 90 85
1768.7506509406014 855.798868872967 -6.2472187770875545 87 86 81
1768.7475676435206 855.7771595503874 -6.184920901972748 87 86 81
1768.749025347601 855.8446936889163 -6.385453025236741 89 88 83
1768.74525673391 855.8188744705711 -6.325802043058608 89 88 83
1768.7466724728158 855.8854744884005 -6.5245495013475745 93 92 88
1768.7444535135926 855.8691193464344 -6.453177979002928 92 91 86
1768.7415803074123 855.908939882059 -6.670910655444627 92 91 86
1768.742999778101 855.9150385887829 -6.5889493906191 95 94 89
1768.7446580236942 855.9794189581767 -6.713706323243874 95 94 89
1768.7406379345923 856.0088090378068 -6.862497944173568 94 93 88
1768.734746257526 856.0262620972065 -7.008837695625333 140 139 134
1768.732101401585 856.0077716998228 -6.940902121040453 95 94 89
1768.9421100150485 857.0992932895931 -0.8063907314998504 110 109 104
1768.9426137260198 857.1004883788024 -0.7481239372508828 109 108 103
1768.9442512690969 857.1086783241085 -0.6904589625536607 114 113 108
1768.9450785253523 857.111870602843 -0.6323996662244711 113 112 107
1768.9457438264512 857.1140636851794 -0.5742525726235304 118 117 112
1768.9462473914111 857.1152582930803 -0.515998539725073 118 117 112
1768.946912765516 857.1174516160709 -0.45784506544887704 115 114 109
1768.9468485708435 857.1153786808526 -0.4064851632027253 112 111 106
1768.947597445237 857.1178472521613 -0.34103379160335634 111 110 105
1768.949877552528 857.1300166559532 -0.28417941461151464 114 113 108
1768.950620751826 857.132931851381 -0.23346666825431917 113 112 107
1768.9515300208786 857.136394475103 -0.16823948086028162 113 112 107
1768.952595414855 857.1413024079521 -0.11785227491508565 112 111 107
1768.9546322740248 857.151739311831 -0.05377245480711679 112 111 107
1768.955296261021 857.1539280623905 0.004259786639229768 112 111 106
1768.956926284509 857.162093220307 0.061267551785162855 114 113 108
1768.9590382311578 857.173242972088 0.11766736865206062 114 113 108
1768.732555447517 856.0659735531498 -7.149804553424638 128 127 123
1768.7310770992588 856.0546224402117 -7.07863827314977 162 163 155
1768.924645697055 857.0573117036342 -1.4389688265091922 104 105 99
1768.9256399907015 857.0615146863827 -1.380692669089253 105 106 100
1768.9269610867236 857.0677203499154 -1.3224788681079718 105 104 99
1768.927464227732 857.0689161829822 -1.2641921248083632 104 103 98
